ply
format ascii 1.0
comment PCL generated
obj_info is_cyberware_data 0
obj_info is_mesh 0
obj_info is_warped 0
obj_info is_interlaced 0
obj_info num_cols 123751
obj_info num_rows 1
obj_info echo_rgb_offset_x 0
obj_info echo_rgb_offset_y 0
obj_info echo_rgb_offset_z 0
obj_info echo_rgb_frontfocus 0.0
obj_info echo_rgb_backfocus 0.0
obj_info echo_rgb_pixelsize 0.0
obj_info echo_rgb_centerpixel 0
obj_info echo_frames 1
obj_info echo_lgincr 0.0
element vertex 1969
property float x
property float y
property float z
end_header
0.096343 0.509575 2.247
0.102449 0.51139 2.255
0.108212 0.51139 2.255
0.113974 0.51139 2.255
0.119737 0.51139 2.255
0.1255 0.51139 2.255
0.131263 0.51139 2.255
0.137026 0.51139 2.255
0.141775 0.507761 2.239
0.14697 0.505947 2.231
0.151577 0.502319 2.215
0.156102 0.49869 2.199
0.160618 0.495288 2.184
0.165058 0.491887 2.169
0.169421 0.488485 2.154
0.173708 0.485083 2.139
0.178588 0.483496 2.132
0.184036 0.483496 2.132
0.188863 0.481908 2.125
0.194293 0.481908 2.125
0.199724 0.481908 2.125
0.205155 0.481908 2.125
0.210585 0.481908 2.125
0.216727 0.483496 2.132
0.223739 0.486897 2.147
0.231575 0.491887 2.169
0.239632 0.497103 2.192
0.246912 0.500504 2.207
0.256214 0.507761 2.239
0.264744 0.513204 2.263
0.272559 0.517059 2.28
0.281438 0.522729 2.305
0.288326 0.524543 2.313
0.295382 0.526584 2.322
0.302484 0.528625 2.331
0.30725 0.526584 2.322
0.313184 0.526584 2.322
0.319118 0.526584 2.322
0.326312 0.528625 2.331
0.330986 0.526584 2.322
0.33692 0.526584 2.322
0.342854 0.526584 2.322
0.348788 0.526584 2.322
0.353348 0.524543 2.313
0.359259 0.524543 2.313
0.363907 0.522729 2.305
0.368353 0.520688 2.296
0.374221 0.520688 2.296
0.378764 0.518873 2.288
0.381754 0.515018 2.271
0.386192 0.513204 2.263
0.389204 0.509575 2.247
0.392134 0.505947 2.231
0.396409 0.504133 2.223
0.400643 0.502319 2.215
0.404836 0.500504 2.207
0.410476 0.500504 2.207
0.414608 0.49869 2.199
0.421757 0.500504 2.207
0.427397 0.500504 2.207
0.433037 0.500504 2.207
0.438677 0.500504 2.207
0.444317 0.500504 2.207
0.449957 0.500504 2.207
0.455598 0.500504 2.207
0.461238 0.500504 2.207
0.465186 0.49869 2.199
0.470805 0.49869 2.199
0.476425 0.49869 2.199
0.48051 0.497103 2.192
0.486112 0.497103 2.192
0.491714 0.497103 2.192
0.497316 0.497103 2.192
0.504524 0.49869 2.199
0.513855 0.502319 2.215
0.523268 0.505947 2.231
0.530867 0.507761 2.239
0.540423 0.51139 2.255
0.550061 0.515018 2.271
0.558068 0.517059 2.28
0.567852 0.520688 2.296
0.575968 0.522729 2.305
0.583878 0.524543 2.313
0.589789 0.524543 2.313
0.5957 0.524543 2.313
0.601611 0.524543 2.313
0.607522 0.524543 2.313
0.613434 0.524543 2.313
0.619345 0.524543 2.313
0.625256 0.524543 2.313
0.631167 0.524543 2.313
0.639557 0.526584 2.322
0.645491 0.526584 2.322
0.651425 0.526584 2.322
0.654811 0.524543 2.313
0.660722 0.524543 2.313
0.666633 0.524543 2.313
0.672544 0.524543 2.313
0.676108 0.522729 2.305
0.681999 0.522729 2.305
0.685204 0.520688 2.296
0.691071 0.520688 2.296
0.694511 0.518873 2.288
0.700358 0.518873 2.288
0.706205 0.518873 2.288
0.709562 0.517059 2.28
0.715389 0.517059 2.28
0.721216 0.517059 2.28
0.727042 0.517059 2.28
0.732869 0.517059 2.28
0.741288 0.518873 2.288
0.747135 0.518873 2.288
0.752982 0.518873 2.288
0.758829 0.518873 2.288
0.764676 0.518873 2.288
0.770523 0.518873 2.288
0.776371 0.518873 2.288
0.784953 0.520688 2.296
0.79082 0.520688 2.296
0.796688 0.520688 2.296
0.802556 0.520688 2.296
0.805606 0.518873 2.288
0.811454 0.518873 2.288
0.817301 0.518873 2.288
0.823148 0.518873 2.288
0.826096 0.517059 2.28
0.831923 0.517059 2.28
0.83775 0.517059 2.28
0.840247 0.515018 2.271
0.84605 0.515018 2.271
0.851854 0.515018 2.271
0.857658 0.515018 2.271
0.86042 0.513204 2.263
0.866203 0.513204 2.263
0.871986 0.513204 2.263
0.87777 0.513204 2.263
0.886676 0.515018 2.271
0.89248 0.515018 2.271
0.898284 0.515018 2.271
0.904087 0.515018 2.271
0.909891 0.515018 2.271
0.915695 0.515018 2.271
0.921499 0.515018 2.271
0.927302 0.515018 2.271
0.929819 0.513204 2.263
0.935602 0.513204 2.263
0.941385 0.513204 2.263
0.947169 0.513204 2.263
0.952952 0.513204 2.263
0.955346 0.51139 2.255
0.961109 0.51139 2.255
0.966872 0.51139 2.255
0.972634 0.51139 2.255
0.978397 0.51139 2.255
0.98416 0.51139 2.255
0.989923 0.51139 2.255
0.995686 0.51139 2.255
1.00145 0.51139 2.255
1.00721 0.51139 2.255
1.01297 0.51139 2.255
1.01874 0.51139 2.255
1.0245 0.51139 2.255
1.03026 0.51139 2.255
1.03603 0.51139 2.255
1.04179 0.51139 2.255
1.04383 0.509575 2.247
1.04958 0.509575 2.247
1.05532 0.509575 2.247
1.06106 0.509575 2.247
1.06301 0.507761 2.239
1.06873 0.507761 2.239
1.07445 0.507761 2.239
1.08017 0.507761 2.239
1.08589 0.507761 2.239
1.08772 0.505947 2.231
1.09342 0.505947 2.231
1.09912 0.505947 2.231
1.10482 0.505947 2.231
1.11052 0.505947 2.231
1.11622 0.505947 2.231
1.12192 0.505947 2.231
1.12763 0.505947 2.231
1.13739 0.507761 2.239
1.14311 0.507761 2.239
1.15294 0.509575 2.247
-0.927549 0.403631 1.76
-0.928296 0.405925 1.77
-0.928992 0.408218 1.78
-0.92704 0.409365 1.785
-0.925062 0.410511 1.79
-0.923059 0.411658 1.795
-0.92103 0.412805 1.8
-0.91643 0.412805 1.8
-0.91183 0.412805 1.8
-0.90723 0.412805 1.8
-0.90263 0.412805 1.8
-0.895535 0.411658 1.795
-0.890948 0.411658 1.795
-0.883892 0.410511 1.79
-0.879317 0.410511 1.79
-0.874743 0.410511 1.79
-0.870168 0.410511 1.79
-0.863176 0.409365 1.785
-0.858614 0.409365 1.785
-0.854052 0.409365 1.785
-0.849491 0.409365 1.785
-0.844929 0.409365 1.785
-0.840367 0.409365 1.785
-0.838147 0.410511 1.79
-0.833572 0.410511 1.79
-0.826682 0.409365 1.785
-0.824423 0.410511 1.79
-0.819849 0.410511 1.79
-0.815274 0.410511 1.79
-0.812964 0.411658 1.795
-0.808377 0.411658 1.795
-0.806029 0.412805 1.8
-0.801429 0.412805 1.8
-0.803912 0.416474 1.816
-0.808514 0.42129 1.837
-0.813446 0.426335 1.859
-0.818265 0.431381 1.881
-0.825999 0.438032 1.91
-0.831436 0.443536 1.934
-0.839314 0.450416 1.964
-0.847888 0.457754 1.996
-0.853343 0.463488 2.021
-0.85951 0.46968 2.048
-0.865539 0.475872 2.075
-0.871844 0.482293 2.103
-0.872238 0.485504 2.117
-0.875836 0.49055 2.139
-0.876473 0.49399 2.154
-0.879864 0.499035 2.176
-0.880732 0.502704 2.192
-0.877924 0.50431 2.199
-0.875478 0.506144 2.207
-0.872991 0.507979 2.215
-0.870463 0.509814 2.223
-0.864782 0.509814 2.223
-0.862193 0.511648 2.231
-0.856491 0.511648 2.231
-0.85384 0.513483 2.239
-0.848118 0.513483 2.239
-0.845406 0.515318 2.247
-0.839664 0.515318 2.247
-0.836891 0.517152 2.255
-0.834076 0.518987 2.263
-0.828293 0.518987 2.263
-0.82251 0.518987 2.263
-0.819614 0.520822 2.271
-0.817035 0.522886 2.28
-0.814055 0.524721 2.288
-0.811034 0.526555 2.296
-0.811128 0.530454 2.313
-0.80835 0.532518 2.322
-0.80829 0.536417 2.339
-0.808487 0.540545 2.357
-0.808592 0.544673 2.375
-0.811646 0.550865 2.402
-0.811879 0.555222 2.421
-0.815343 0.561873 2.45
-0.812054 0.563937 2.459
-0.809047 0.56623 2.469
-0.805988 0.568524 2.479
-0.802879 0.570817 2.489
-0.796518 0.570817 2.489
-0.786982 0.568524 2.479
-0.780647 0.568524 2.479
-0.771188 0.56623 2.469
-0.761781 0.563937 2.459
-0.755497 0.563937 2.459
-0.74647 0.561873 2.45
-0.740209 0.561873 2.45
-0.733948 0.561873 2.45
-0.727687 0.561873 2.45
-0.721426 0.561873 2.45
-0.715164 0.561873 2.45
-0.711507 0.563937 2.459
-0.705223 0.563937 2.459
-0.698939 0.563937 2.459
-0.695472 0.56623 2.469
-0.689162 0.56623 2.469
-0.682852 0.56623 2.469
-0.676543 0.56623 2.469
-0.670233 0.56623 2.469
-0.663923 0.56623 2.469
-0.657614 0.56623 2.469
-0.648666 0.563937 2.459
-0.642382 0.563937 2.459
-0.63377 0.561873 2.45
-0.627508 0.561873 2.45
-0.618711 0.55958 2.44
-0.612476 0.55958 2.44
-0.60624 0.55958 2.44
-0.600005 0.55958 2.44
-0.593769 0.55958 2.44
-0.585126 0.557286 2.43
-0.578915 0.557286 2.43
-0.572705 0.557286 2.43
-0.566495 0.557286 2.43
-0.560285 0.557286 2.43
-0.554075 0.557286 2.43
-0.55012 0.55958 2.44
-0.543884 0.55958 2.44
-0.537649 0.55958 2.44
-0.531413 0.55958 2.44
-0.525177 0.55958 2.44
-0.516815 0.557286 2.43
-0.510605 0.557286 2.43
-0.504395 0.557286 2.43
-0.498185 0.557286 2.43
-0.491975 0.557286 2.43
-0.485765 0.557286 2.43
-0.479555 0.557286 2.43
-0.473345 0.557286 2.43
-0.467135 0.557286 2.43
-0.460925 0.557286 2.43
-0.454715 0.557286 2.43
-0.45035 0.55958 2.44
-0.444115 0.55958 2.44
-0.437879 0.55958 2.44
-0.431643 0.55958 2.44
-0.425408 0.55958 2.44
-0.419172 0.55958 2.44
-0.412937 0.55958 2.44
-0.406701 0.55958 2.44
-0.400465 0.55958 2.44
-0.39423 0.55958 2.44
-0.387994 0.55958 2.44
-0.381759 0.55958 2.44
-0.375523 0.55958 2.44
-0.369287 0.55958 2.44
-0.363052 0.55958 2.44
-0.356816 0.55958 2.44
-0.350581 0.55958 2.44
-0.342934 0.557286 2.43
-0.336724 0.557286 2.43
-0.32929 0.555222 2.421
-0.323103 0.555222 2.421
-0.316915 0.555222 2.421
-0.309573 0.553158 2.412
-0.303409 0.553158 2.412
-0.297245 0.553158 2.412
-0.291081 0.553158 2.412
-0.284917 0.553158 2.412
-0.278753 0.553158 2.412
-0.272589 0.553158 2.412
-0.266425 0.553158 2.412
-0.260261 0.553158 2.412
-0.254097 0.553158 2.412
-0.247933 0.553158 2.412
-0.241769 0.553158 2.412
-0.235605 0.553158 2.412
-0.229441 0.553158 2.412
-0.22411 0.555222 2.421
-0.217923 0.555222 2.421
-0.211736 0.555222 2.421
-0.205549 0.555222 2.421
-0.199362 0.555222 2.421
-0.193175 0.555222 2.421
-0.187683 0.557286 2.43
-0.181473 0.557286 2.43
-0.174613 0.555222 2.421
-0.168426 0.555222 2.421
-0.162239 0.555222 2.421
-0.156632 0.557286 2.43
-0.150422 0.557286 2.43
-0.143678 0.555222 2.421
-0.13698 0.553158 2.412
-0.130274 0.550865 2.402
-0.12367 0.548801 2.393
-0.117112 0.546737 2.384
-0.110182 0.542609 2.366
-0.103343 0.538481 2.348
-0.0969694 0.536417 2.339
-0.0903306 0.532518 2.322
-0.0837787 0.528619 2.305
-0.077584 0.526555 2.296
-0.0712166 0.522886 2.28
-0.0651318 0.520822 2.271
-0.0591191 0.518987 2.263
-0.0533358 0.518987 2.263
-0.0473844 0.517152 2.255
-0.0416216 0.517152 2.255
-0.0357316 0.515318 2.247
-0.0298824 0.513483 2.239
-0.0242468 0.515318 2.247
-0.0184386 0.513483 2.239
-0.0127167 0.513483 2.239
-0.00696974 0.511648 2.231
-0.00126825 0.511648 2.231
0.00441734 0.509814 2.223
0.0100984 0.509814 2.223
0.0157794 0.509814 2.223
0.0214605 0.509814 2.223
0.0271415 0.509814 2.223
0.0328225 0.509814 2.223
0.0385036 0.509814 2.223
0.0441846 0.509814 2.223
0.0498657 0.509814 2.223
0.0557466 0.511648 2.231
0.0614481 0.511648 2.231
0.0671496 0.511648 2.231
0.0731123 0.513483 2.239
0.0788342 0.513483 2.239
0.0848583 0.515318 2.247
0.0906006 0.515318 2.247
0.096343 0.515318 2.247
0.102449 0.517152 2.255
0.108212 0.517152 2.255
0.114379 0.518987 2.263
0.120162 0.518987 2.263
0.125945 0.518987 2.263
0.131729 0.518987 2.263
0.137026 0.517152 2.255
0.142282 0.515318 2.247
0.14697 0.511648 2.231
0.151577 0.507979 2.215
0.15667 0.506144 2.207
0.160618 0.50087 2.184
0.165591 0.499035 2.176
0.169972 0.495595 2.161
0.174358 0.492384 2.147
0.178588 0.488944 2.132
0.184036 0.488944 2.132
0.188863 0.487339 2.125
0.194293 0.487339 2.125
0.198972 0.485504 2.117
0.204382 0.485504 2.117
0.210585 0.487339 2.125
0.216016 0.487339 2.125
0.222905 0.49055 2.139
0.230721 0.495595 2.161
0.238758 0.50087 2.184
0.246912 0.506144 2.207
0.255299 0.511648 2.231
0.263808 0.517152 2.255
0.272559 0.522886 2.28
0.281438 0.528619 2.305
0.288326 0.530454 2.313
0.295382 0.532518 2.322
0.301316 0.532518 2.322
0.30725 0.532518 2.322
0.313184 0.532518 2.322
0.319118 0.532518 2.322
0.325052 0.532518 2.322
0.330986 0.532518 2.322
0.33692 0.532518 2.322
0.342854 0.532518 2.322
0.347437 0.530454 2.313
0.353348 0.530454 2.313
0.358016 0.528619 2.305
0.363907 0.528619 2.305
0.368353 0.526555 2.296
0.372917 0.524721 2.288
0.37744 0.522886 2.28
0.381754 0.520822 2.271
0.384827 0.517152 2.255
0.389204 0.515318 2.247
0.39354 0.513483 2.239
0.397836 0.511648 2.231
0.400643 0.507979 2.215
0.406304 0.507979 2.215
0.410476 0.506144 2.207
0.416117 0.506144 2.207
0.423286 0.507979 2.215
0.427397 0.506144 2.207
0.434607 0.507979 2.215
0.440267 0.507979 2.215
0.445928 0.507979 2.215
0.451589 0.507979 2.215
0.457249 0.507979 2.215
0.461238 0.506144 2.207
0.465186 0.50431 2.199
0.470805 0.50431 2.199
0.476425 0.50431 2.199
0.482045 0.50431 2.199
0.486112 0.502704 2.192
0.491714 0.502704 2.192
0.497316 0.502704 2.192
0.502918 0.502704 2.192
0.513855 0.507979 2.215
0.521392 0.509814 2.223
0.530867 0.513483 2.239
0.538506 0.515318 2.247
0.546186 0.517152 2.255
0.555865 0.520822 2.271
0.563895 0.522886 2.28
0.57172 0.524721 2.288
0.579587 0.526555 2.296
0.585455 0.526555 2.296
0.591322 0.526555 2.296
0.59719 0.526555 2.296
0.603057 0.526555 2.296
0.608925 0.526555 2.296
0.617202 0.528619 2.305
0.623093 0.528619 2.305
0.628984 0.528619 2.305
0.634874 0.528619 2.305
0.640765 0.528619 2.305
0.646655 0.528619 2.305
0.652546 0.528619 2.305
0.658437 0.528619 2.305
0.661733 0.526555 2.296
0.667601 0.526555 2.296
0.673468 0.526555 2.296
0.676969 0.524721 2.288
0.680429 0.522886 2.28
0.686255 0.522886 2.28
0.68935 0.520822 2.271
0.695154 0.520822 2.271
0.698488 0.518987 2.263
0.704272 0.518987 2.263
0.710055 0.518987 2.263
0.715838 0.518987 2.263
0.721621 0.518987 2.263
0.727405 0.518987 2.263
0.73578 0.520822 2.271
0.741584 0.520822 2.271
0.747387 0.520822 2.271
0.753191 0.520822 2.271
0.762003 0.522886 2.28
0.767829 0.522886 2.28
0.773656 0.522886 2.28
0.779483 0.522886 2.28
0.785309 0.522886 2.28
0.791136 0.522886 2.28
0.796963 0.522886 2.28
0.80279 0.522886 2.28
0.805424 0.520822 2.271
0.811228 0.520822 2.271
0.814154 0.518987 2.263
0.819937 0.518987 2.263
0.822801 0.517152 2.255
0.828564 0.517152 2.255
0.834327 0.517152 2.255
0.837109 0.515318 2.247
0.842852 0.515318 2.247
0.848594 0.515318 2.247
0.854336 0.515318 2.247
0.860079 0.515318 2.247
0.865821 0.515318 2.247
0.871564 0.515318 2.247
0.880429 0.517152 2.255
0.886192 0.517152 2.255
0.891955 0.517152 2.255
0.897718 0.517152 2.255
0.903481 0.517152 2.255
0.909243 0.517152 2.255
0.915006 0.517152 2.255
0.917503 0.515318 2.247
0.923245 0.515318 2.247
0.928987 0.515318 2.247
0.93473 0.515318 2.247
0.940472 0.515318 2.247
0.946214 0.515318 2.247
0.948568 0.513483 2.239
0.954289 0.513483 2.239
0.960011 0.513483 2.239
0.965733 0.513483 2.239
0.971455 0.513483 2.239
0.977177 0.513483 2.239
0.982899 0.513483 2.239
0.992153 0.515318 2.247
0.997896 0.515318 2.247
1.00364 0.515318 2.247
1.00938 0.515318 2.247
1.01512 0.515318 2.247
1.02087 0.515318 2.247
1.02295 0.513483 2.239
1.02867 0.513483 2.239
1.0344 0.513483 2.239
1.0364 0.511648 2.231
1.0421 0.511648 2.231
1.04781 0.511648 2.231
1.05351 0.511648 2.231
1.05921 0.511648 2.231
1.06109 0.509814 2.223
1.06677 0.509814 2.223
1.07245 0.509814 2.223
1.07813 0.509814 2.223
1.07991 0.507979 2.215
1.08558 0.507979 2.215
1.09124 0.507979 2.215
1.0969 0.507979 2.215
1.10256 0.507979 2.215
1.10822 0.507979 2.215
1.11388 0.507979 2.215
1.11954 0.507979 2.215
1.1252 0.507979 2.215
1.13494 0.509814 2.223
1.14063 0.509814 2.223
-0.927549 0.408129 1.76
-0.928296 0.410448 1.77
-0.928992 0.412767 1.78
-0.92704 0.413926 1.785
-0.925062 0.415086 1.79
-0.923059 0.416245 1.795
-0.92103 0.417405 1.8
-0.91643 0.417405 1.8
-0.91183 0.417405 1.8
-0.90723 0.417405 1.8
-0.90263 0.417405 1.8
-0.895535 0.416245 1.795
-0.890948 0.416245 1.795
-0.883892 0.415086 1.79
-0.879317 0.415086 1.79
-0.872299 0.413926 1.785
-0.867738 0.413926 1.785
-0.863176 0.413926 1.785
-0.858614 0.413926 1.785
-0.854052 0.413926 1.785
-0.849491 0.413926 1.785
-0.844929 0.413926 1.785
-0.840367 0.413926 1.785
-0.838147 0.415086 1.79
-0.833572 0.415086 1.79
-0.828998 0.415086 1.79
-0.824423 0.415086 1.79
-0.819849 0.415086 1.79
-0.815274 0.415086 1.79
-0.812964 0.416245 1.795
-0.808377 0.416245 1.795
-0.808268 0.418564 1.805
-0.803655 0.418564 1.805
-0.803912 0.421115 1.816
-0.811154 0.427376 1.843
-0.818259 0.433637 1.87
-0.826095 0.440362 1.899
-0.833784 0.447087 1.928
-0.839174 0.452652 1.952
-0.841878 0.456826 1.97
-0.847888 0.462855 1.996
-0.853343 0.468653 2.021
-0.856572 0.473291 2.041
-0.862619 0.479552 2.068
-0.86604 0.484421 2.089
-0.872238 0.490914 2.117
-0.872969 0.494393 2.132
-0.876473 0.499494 2.154
-0.877033 0.502973 2.169
-0.880732 0.508306 2.192
-0.881118 0.511784 2.207
-0.878652 0.51364 2.215
-0.876144 0.515495 2.223
-0.873596 0.51735 2.231
-0.871006 0.519205 2.239
-0.865284 0.519205 2.239
-0.862634 0.52106 2.247
-0.856891 0.52106 2.247
-0.854179 0.522915 2.255
-0.848416 0.522915 2.255
-0.842653 0.522915 2.255
-0.836891 0.522915 2.255
-0.834076 0.52477 2.263
-0.828293 0.52477 2.263
-0.825418 0.526626 2.271
-0.822862 0.528713 2.28
-0.817035 0.528713 2.28
-0.814055 0.530568 2.288
-0.811034 0.532423 2.296
-0.808322 0.53451 2.305
-0.80835 0.538452 2.322
-0.80829 0.542394 2.339
-0.808487 0.546568 2.357
-0.805528 0.548655 2.366
-0.808605 0.554916 2.393
-0.808861 0.559322 2.412
-0.808687 0.563496 2.43
-0.805779 0.565815 2.44
-0.802821 0.568134 2.45
-0.799486 0.570221 2.459
-0.793202 0.570221 2.459
-0.786917 0.570221 2.459
-0.783808 0.57254 2.469
-0.774349 0.570221 2.459
-0.768065 0.570221 2.459
-0.758993 0.568134 2.45
-0.749659 0.565815 2.44
-0.740377 0.563496 2.43
-0.734167 0.563496 2.43
-0.727957 0.563496 2.43
-0.721747 0.563496 2.43
-0.715536 0.563496 2.43
-0.712245 0.565815 2.44
-0.70601 0.565815 2.44
-0.702642 0.568134 2.45
-0.696381 0.568134 2.45
-0.69012 0.568134 2.45
-0.683859 0.568134 2.45
-0.677598 0.568134 2.45
-0.671336 0.568134 2.45
-0.665075 0.568134 2.45
-0.658814 0.568134 2.45
-0.652553 0.568134 2.45
-0.643654 0.565815 2.44
-0.637418 0.565815 2.44
-0.628596 0.563496 2.43
-0.622386 0.563496 2.43
-0.616176 0.563496 2.43
-0.607707 0.561409 2.421
-0.60152 0.561409 2.421
-0.595332 0.561409 2.421
-0.589145 0.561409 2.421
-0.582958 0.561409 2.421
-0.576771 0.561409 2.421
-0.570584 0.561409 2.421
-0.564397 0.561409 2.421
-0.55821 0.561409 2.421
-0.552023 0.561409 2.421
-0.545836 0.561409 2.421
-0.539649 0.561409 2.421
-0.531479 0.559322 2.412
-0.525315 0.559322 2.412
-0.519151 0.559322 2.412
-0.512987 0.559322 2.412
-0.506823 0.559322 2.412
-0.500659 0.559322 2.412
-0.494495 0.559322 2.412
-0.488331 0.559322 2.412
-0.482167 0.559322 2.412
-0.476003 0.559322 2.412
-0.469839 0.559322 2.412
-0.463674 0.559322 2.412
-0.45751 0.559322 2.412
-0.451346 0.559322 2.412
-0.445182 0.559322 2.412
-0.440656 0.561409 2.421
-0.434469 0.561409 2.421
-0.428282 0.561409 2.421
-0.422095 0.561409 2.421
-0.415908 0.561409 2.421
-0.409721 0.561409 2.421
-0.403534 0.561409 2.421
-0.397347 0.561409 2.421
-0.39116 0.561409 2.421
-0.386404 0.563496 2.43
-0.380194 0.563496 2.43
-0.373984 0.563496 2.43
-0.366412 0.561409 2.421
-0.360225 0.561409 2.421
-0.354038 0.561409 2.421
-0.347851 0.561409 2.421
-0.340394 0.559322 2.412
-0.33423 0.559322 2.412
-0.328065 0.559322 2.412
-0.320567 0.557003 2.402
-0.314428 0.557003 2.402
-0.30829 0.557003 2.402
-0.302151 0.557003 2.402
-0.296013 0.557003 2.402
-0.289874 0.557003 2.402
-0.283736 0.557003 2.402
-0.277597 0.557003 2.402
-0.271459 0.557003 2.402
-0.26532 0.557003 2.402
-0.259182 0.557003 2.402
-0.253043 0.557003 2.402
-0.246905 0.557003 2.402
-0.240767 0.557003 2.402
-0.234628 0.557003 2.402
-0.22849 0.557003 2.402
-0.222351 0.557003 2.402
-0.217113 0.559322 2.412
-0.210949 0.559322 2.412
-0.205549 0.561409 2.421
-0.199362 0.561409 2.421
-0.193175 0.561409 2.421
-0.186988 0.561409 2.421
-0.180801 0.561409 2.421
-0.174613 0.561409 2.421
-0.168426 0.561409 2.421
-0.162239 0.561409 2.421
-0.156052 0.561409 2.421
-0.149865 0.561409 2.421
-0.143144 0.559322 2.412
-0.136412 0.557003 2.402
-0.129297 0.552829 2.384
-0.12274 0.550742 2.375
-0.115786 0.546568 2.357
-0.108924 0.542394 2.339
-0.102199 0.538452 2.322
-0.0955599 0.53451 2.305
-0.089008 0.530568 2.288
-0.0825429 0.526626 2.271
-0.0764689 0.52477 2.263
-0.0701858 0.52106 2.247
-0.0644435 0.52106 2.247
-0.0584921 0.519205 2.239
-0.0525816 0.51735 2.231
-0.0468801 0.51735 2.231
-0.041031 0.515495 2.223
-0.0353499 0.515495 2.223
-0.0296689 0.515495 2.223
-0.0239879 0.515495 2.223
-0.0182409 0.51364 2.215
-0.0126258 0.515495 2.223
-0.00691975 0.51364 2.215
-0.00125916 0.51364 2.215
0.00440144 0.51364 2.215
0.010062 0.51364 2.215
0.0157226 0.51364 2.215
0.0213832 0.51364 2.215
0.0270438 0.51364 2.215
0.0328225 0.515495 2.223
0.0385036 0.515495 2.223
0.0441846 0.515495 2.223
0.0498657 0.515495 2.223
0.0557466 0.51735 2.231
0.0616684 0.519205 2.239
0.0673904 0.519205 2.239
0.0731123 0.519205 2.239
0.0788342 0.519205 2.239
0.0848583 0.52106 2.247
0.0906006 0.52106 2.247
0.096686 0.522915 2.255
0.102449 0.522915 2.255
0.108596 0.52477 2.263
0.114379 0.52477 2.263
0.120162 0.52477 2.263
0.125945 0.52477 2.263
0.131729 0.52477 2.263
0.137026 0.522915 2.255
0.142789 0.522915 2.255
0.147497 0.519205 2.239
0.152124 0.515495 2.223
0.15667 0.511784 2.207
0.161207 0.508306 2.192
0.165591 0.504596 2.176
0.170601 0.502973 2.169
0.174926 0.499494 2.154
0.179174 0.496016 2.139
0.184036 0.494393 2.132
0.188863 0.492769 2.125
0.194293 0.492769 2.125
0.198972 0.490914 2.117
0.204382 0.490914 2.117
0.209792 0.490914 2.117
0.215203 0.490914 2.117
0.222176 0.494393 2.132
0.229973 0.499494 2.154
0.237883 0.504596 2.176
0.245234 0.508306 2.192
0.254383 0.515495 2.223
0.262872 0.52106 2.247
0.270527 0.52477 2.263
0.279363 0.530568 2.288
0.287329 0.53451 2.305
0.294237 0.536365 2.313
0.300148 0.536365 2.313
0.306059 0.536365 2.313
0.31197 0.536365 2.313
0.317881 0.536365 2.313
0.323792 0.536365 2.313
0.329704 0.536365 2.313
0.335615 0.536365 2.313
0.341526 0.536365 2.313
0.346235 0.53451 2.305
0.352126 0.53451 2.305
0.358016 0.53451 2.305
0.362486 0.532423 2.296
0.36707 0.530568 2.288
0.371613 0.528713 2.28
0.37595 0.526626 2.271
0.380409 0.52477 2.263
0.384827 0.522915 2.255
0.389204 0.52106 2.247
0.39354 0.519205 2.239
0.397836 0.51735 2.231
0.40209 0.515495 2.223
0.407771 0.515495 2.223
0.411964 0.51364 2.215
0.417625 0.51364 2.215
0.423286 0.51364 2.215
0.428946 0.51364 2.215
0.436176 0.515495 2.223
0.441857 0.515495 2.223
0.447538 0.515495 2.223
0.45322 0.515495 2.223
0.458901 0.515495 2.223
0.464582 0.515495 2.223
0.466878 0.511784 2.207
0.472518 0.511784 2.207
0.476425 0.509929 2.199
0.482045 0.509929 2.199
0.486112 0.508306 2.192
0.491714 0.508306 2.192
0.497316 0.508306 2.192
0.502918 0.508306 2.192
0.511999 0.511784 2.207
0.521392 0.515495 2.223
0.52897 0.51735 2.231
0.536589 0.519205 2.239
0.544248 0.52106 2.247
0.551949 0.522915 2.255
0.55969 0.52477 2.263
0.567472 0.526626 2.271
0.575548 0.528713 2.28
0.581375 0.528713 2.28
0.587201 0.528713 2.28
0.593028 0.528713 2.28
0.598855 0.528713 2.28
0.604682 0.528713 2.28
0.61265 0.530568 2.288
0.618498 0.530568 2.288
0.624345 0.530568 2.288
0.630192 0.530568 2.288
0.636039 0.530568 2.288
0.641886 0.530568 2.288
0.647733 0.530568 2.288
0.65358 0.530568 2.288
0.657122 0.528713 2.28
0.662949 0.528713 2.28
0.668775 0.528713 2.28
0.671939 0.526626 2.271
0.675355 0.52477 2.263
0.681139 0.52477 2.263
0.684494 0.522915 2.255
0.690256 0.522915 2.255
0.69355 0.52106 2.247
0.699292 0.52106 2.247
0.705035 0.52106 2.247
0.710777 0.52106 2.247
0.716519 0.52106 2.247
0.722262 0.52106 2.247
0.728004 0.52106 2.247
0.733747 0.52106 2.247
0.742122 0.522915 2.255
0.747885 0.522915 2.255
0.753647 0.522915 2.255
0.75941 0.522915 2.255
0.765173 0.522915 2.255
0.773671 0.52477 2.263
0.779454 0.52477 2.263
0.785237 0.52477 2.263
0.791021 0.52477 2.263
0.793987 0.522915 2.255
0.79975 0.522915 2.255
0.805513 0.522915 2.255
0.811276 0.522915 2.255
0.81414 0.52106 2.247
0.819882 0.52106 2.247
0.822685 0.519205 2.239
0.828407 0.519205 2.239
0.831149 0.51735 2.231
0.83685 0.51735 2.231
0.842552 0.51735 2.231
0.848253 0.51735 2.231
0.853955 0.51735 2.231
0.859656 0.51735 2.231
0.865357 0.51735 2.231
0.871059 0.51735 2.231
0.87676 0.51735 2.231
0.882462 0.51735 2.231
0.888163 0.51735 2.231
0.893865 0.51735 2.231
0.899566 0.51735 2.231
0.905268 0.51735 2.231
0.910969 0.51735 2.231
0.916671 0.51735 2.231
0.919065 0.515495 2.223
0.924746 0.515495 2.223
0.930427 0.515495 2.223
0.936108 0.515495 2.223
0.941789 0.515495 2.223
0.94747 0.515495 2.223
0.953151 0.515495 2.223
0.958832 0.515495 2.223
0.964513 0.515495 2.223
0.973686 0.51735 2.231
0.979387 0.51735 2.231
0.985089 0.51735 2.231
0.99079 0.51735 2.231
0.996492 0.51735 2.231
1.00219 0.51735 2.231
1.00789 0.51735 2.231
1.0136 0.51735 2.231
1.0193 0.51735 2.231
1.02132 0.515495 2.223
1.027 0.515495 2.223
1.03269 0.515495 2.223
1.03837 0.515495 2.223
1.04029 0.51364 2.215
1.04595 0.51364 2.215
1.05161 0.51364 2.215
1.05345 0.511784 2.207
1.05909 0.511784 2.207
1.06473 0.511784 2.207
1.07037 0.511784 2.207
1.07211 0.509929 2.199
1.07773 0.509929 2.199
1.08335 0.509929 2.199
1.08897 0.509929 2.199
1.09111 0.508306 2.192
1.09671 0.508306 2.192
1.10583 0.509929 2.199
1.11145 0.509929 2.199
1.11707 0.509929 2.199
1.12678 0.511784 2.207
1.13242 0.511784 2.207
-0.927549 0.412627 1.76
-0.928296 0.414971 1.77
-0.926382 0.416144 1.775
-0.92704 0.418488 1.785
-0.925062 0.41966 1.79
-0.923059 0.420832 1.795
-0.92103 0.422005 1.8
-0.91643 0.422005 1.8
-0.91183 0.422005 1.8
-0.90723 0.422005 1.8
-0.900122 0.420832 1.795
-0.895535 0.420832 1.795
-0.888466 0.41966 1.79
-0.881423 0.418488 1.785
-0.876861 0.418488 1.785
-0.872299 0.418488 1.785
-0.867738 0.418488 1.785
-0.863176 0.418488 1.785
-0.856209 0.417316 1.78
-0.85166 0.417316 1.78
-0.847111 0.417316 1.78
-0.842562 0.417316 1.78
-0.840367 0.418488 1.785
-0.838147 0.41966 1.79
-0.833572 0.41966 1.79
-0.828998 0.41966 1.79
-0.824423 0.41966 1.79
-0.822139 0.420832 1.795
-0.817552 0.420832 1.795
-0.815229 0.422005 1.8
-0.812881 0.423177 1.805
-0.810955 0.424584 1.811
-0.806327 0.424584 1.811
-0.808339 0.4281 1.826
-0.815996 0.434665 1.854
-0.823072 0.440995 1.881
-0.82827 0.446387 1.904
-0.833784 0.452014 1.928
-0.836595 0.456234 1.946
-0.839314 0.460454 1.964
-0.844915 0.466315 1.989
-0.847854 0.47077 2.008
-0.854054 0.4771 2.035
-0.857196 0.481789 2.055
-0.860236 0.486478 2.075
-0.866469 0.493042 2.103
-0.870103 0.4982 2.125
-0.873624 0.503358 2.147
-0.873798 0.50664 2.161
-0.877517 0.512032 2.184
-0.881118 0.517425 2.207
-0.881825 0.521176 2.223
-0.88245 0.524927 2.239
-0.879861 0.526803 2.247
-0.87723 0.528678 2.255
-0.871468 0.528678 2.255
-0.865705 0.528678 2.255
-0.862993 0.530554 2.263
-0.857209 0.530554 2.263
-0.851426 0.530554 2.263
-0.845643 0.530554 2.263
-0.83986 0.530554 2.263
-0.837025 0.532429 2.271
-0.831221 0.532429 2.271
-0.828689 0.534539 2.28
-0.822862 0.534539 2.28
-0.819902 0.536415 2.288
-0.814055 0.536415 2.288
-0.811034 0.53829 2.296
-0.808322 0.540401 2.305
-0.80835 0.544386 2.322
-0.805526 0.546496 2.331
-0.802313 0.548372 2.339
-0.802464 0.552592 2.357
-0.802522 0.556812 2.375
-0.802489 0.561032 2.393
-0.802697 0.565486 2.412
-0.799505 0.567596 2.421
-0.796267 0.569706 2.43
-0.793308 0.572051 2.44
-0.787073 0.572051 2.44
-0.784037 0.574395 2.45
-0.777776 0.574395 2.45
-0.768366 0.572051 2.44
-0.76213 0.572051 2.44
-0.752797 0.569706 2.43
-0.746587 0.569706 2.43
-0.737635 0.567596 2.421
-0.731447 0.567596 2.421
-0.72526 0.567596 2.421
-0.719073 0.567596 2.421
-0.712886 0.567596 2.421
-0.706699 0.567596 2.421
-0.703116 0.569706 2.43
-0.696906 0.569706 2.43
-0.690696 0.569706 2.43
-0.684486 0.569706 2.43
-0.681067 0.572051 2.44
-0.674832 0.572051 2.44
-0.668596 0.572051 2.44
-0.662361 0.572051 2.44
-0.653436 0.569706 2.43
-0.647226 0.569706 2.43
-0.638642 0.567596 2.421
-0.632455 0.567596 2.421
-0.626268 0.567596 2.421
-0.617776 0.565486 2.412
-0.611611 0.565486 2.412
-0.602937 0.563142 2.402
-0.596799 0.563142 2.402
-0.59066 0.563142 2.402
-0.584522 0.563142 2.402
-0.578383 0.563142 2.402
-0.572245 0.563142 2.402
-0.566106 0.563142 2.402
-0.559968 0.563142 2.402
-0.553829 0.563142 2.402
-0.547691 0.563142 2.402
-0.541552 0.563142 2.402
-0.535414 0.563142 2.402
-0.529275 0.563142 2.402
-0.523137 0.563142 2.402
-0.516999 0.563142 2.402
-0.51086 0.563142 2.402
-0.504722 0.563142 2.402
-0.496715 0.561032 2.393
-0.490599 0.561032 2.393
-0.484484 0.561032 2.393
-0.478368 0.561032 2.393
-0.472253 0.561032 2.393
-0.466137 0.561032 2.393
-0.460022 0.561032 2.393
-0.453906 0.561032 2.393
-0.447791 0.561032 2.393
-0.441675 0.561032 2.393
-0.437198 0.563142 2.402
-0.43106 0.563142 2.402
-0.424921 0.563142 2.402
-0.420526 0.565486 2.412
-0.414362 0.565486 2.412
-0.408198 0.565486 2.412
-0.402034 0.565486 2.412
-0.39587 0.565486 2.412
-0.389706 0.565486 2.412
-0.383542 0.565486 2.412
-0.377378 0.565486 2.412
-0.371214 0.565486 2.412
-0.36505 0.565486 2.412
-0.357398 0.563142 2.402
-0.351259 0.563142 2.402
-0.345121 0.563142 2.402
-0.338982 0.563142 2.402
-0.332844 0.563142 2.402
-0.325481 0.561032 2.393
-0.319366 0.561032 2.393
-0.31325 0.561032 2.393
-0.307135 0.561032 2.393
-0.301019 0.561032 2.393
-0.294904 0.561032 2.393
-0.288788 0.561032 2.393
-0.282673 0.561032 2.393
-0.276557 0.561032 2.393
-0.270442 0.561032 2.393
-0.264326 0.561032 2.393
-0.258211 0.561032 2.393
-0.252095 0.561032 2.393
-0.24598 0.561032 2.393
-0.239864 0.561032 2.393
-0.234628 0.563142 2.402
-0.22849 0.563142 2.402
-0.222351 0.563142 2.402
-0.216213 0.563142 2.402
-0.210074 0.563142 2.402
-0.204785 0.565486 2.412
-0.198621 0.565486 2.412
-0.193175 0.567596 2.421
-0.186988 0.567596 2.421
-0.180128 0.565486 2.412
-0.173964 0.565486 2.412
-0.168426 0.567596 2.421
-0.162239 0.567596 2.421
-0.155472 0.565486 2.412
-0.148689 0.563142 2.402
-0.142017 0.561032 2.393
-0.134879 0.556812 2.375
-0.128321 0.554702 2.366
-0.121345 0.550482 2.348
-0.114067 0.544386 2.322
-0.107341 0.540401 2.305
-0.100702 0.536415 2.288
-0.0941503 0.532429 2.271
-0.0877242 0.528678 2.255
-0.0813798 0.524927 2.239
-0.0753876 0.523051 2.231
-0.0694362 0.521176 2.223
-0.0635257 0.5193 2.215
-0.0576561 0.517425 2.207
-0.052016 0.517425 2.207
-0.0462077 0.515549 2.199
-0.040588 0.515549 2.199
-0.0349683 0.515549 2.199
-0.0293486 0.515549 2.199
-0.0237289 0.515549 2.199
-0.0181092 0.515549 2.199
-0.0125349 0.517425 2.207
-0.00686977 0.515549 2.199
-0.00125461 0.517425 2.207
0.00438554 0.517425 2.207
0.0100257 0.517425 2.207
0.0156658 0.517425 2.207
0.0213832 0.5193 2.215
0.0270438 0.5193 2.215
0.0328225 0.521176 2.223
0.0385036 0.521176 2.223
0.0441846 0.521176 2.223
0.0500451 0.523051 2.231
0.0557466 0.523051 2.231
0.0616684 0.524927 2.239
0.0673904 0.524927 2.239
0.0733735 0.526803 2.247
0.0791159 0.526803 2.247
0.0851604 0.528678 2.255
0.0909232 0.528678 2.255
0.096686 0.528678 2.255
0.102812 0.530554 2.263
0.108596 0.530554 2.263
0.114379 0.530554 2.263
0.120587 0.532429 2.271
0.126391 0.532429 2.271
0.131729 0.530554 2.263
0.137512 0.530554 2.263
0.142789 0.528678 2.255
0.147497 0.524927 2.239
0.152672 0.523051 2.231
0.157238 0.5193 2.215
0.161721 0.515549 2.199
0.166808 0.513908 2.192
0.171152 0.510157 2.176
0.175495 0.50664 2.161
0.179844 0.503358 2.147
0.184641 0.501482 2.139
0.189485 0.499841 2.132
0.194293 0.4982 2.125
0.198972 0.496324 2.117
0.204382 0.496324 2.117
0.209792 0.496324 2.117
0.214491 0.494683 2.11
0.220613 0.496324 2.117
0.227624 0.499841 2.132
0.235478 0.504999 2.154
0.243444 0.510157 2.176
0.251637 0.515549 2.199
0.260064 0.521176 2.223
0.268614 0.526803 2.247
0.27631 0.530554 2.263
0.28521 0.536415 2.288
0.292075 0.53829 2.296
0.297942 0.53829 2.296
0.305001 0.540401 2.305
0.310891 0.540401 2.305
0.316782 0.540401 2.305
0.322673 0.540401 2.305
0.328563 0.540401 2.305
0.334454 0.540401 2.305
0.339015 0.53829 2.296
0.344883 0.53829 2.296
0.350751 0.53829 2.296
0.355376 0.536415 2.288
0.361223 0.536415 2.288
0.365787 0.534539 2.28
0.370146 0.532429 2.271
0.374626 0.530554 2.263
0.379064 0.528678 2.255
0.384827 0.528678 2.255
0.389204 0.526803 2.247
0.39354 0.524927 2.239
0.397836 0.523051 2.231
0.40209 0.521176 2.223
0.407771 0.521176 2.223
0.413452 0.521176 2.223
0.417625 0.5193 2.215
0.424814 0.521176 2.223
0.430495 0.521176 2.223
0.436176 0.521176 2.223
0.443448 0.523051 2.231
0.449149 0.523051 2.231
0.454851 0.523051 2.231
0.460552 0.523051 2.231
0.464582 0.521176 2.223
0.46857 0.5193 2.215
0.472518 0.517425 2.207
0.478158 0.517425 2.207
0.482045 0.515549 2.199
0.487664 0.515549 2.199
0.491714 0.513908 2.192
0.497316 0.513908 2.192
0.502918 0.513908 2.192
0.511999 0.517425 2.207
0.519516 0.5193 2.215
0.527073 0.521176 2.223
0.534671 0.523051 2.231
0.540373 0.523051 2.231
0.548032 0.524927 2.239
0.555733 0.526803 2.247
0.563474 0.528678 2.255
0.569237 0.528678 2.255
0.575 0.528678 2.255
0.580763 0.528678 2.255
0.588606 0.530554 2.263
0.59439 0.530554 2.263
0.600173 0.530554 2.263
0.608098 0.532429 2.271
0.613902 0.532429 2.271
0.619706 0.532429 2.271
0.62551 0.532429 2.271
0.631313 0.532429 2.271
0.637117 0.532429 2.271
0.640656 0.530554 2.263
0.646439 0.530554 2.263
0.652222 0.530554 2.263
0.655679 0.528678 2.255
0.661442 0.528678 2.255
0.664838 0.526803 2.247
0.670581 0.526803 2.247
0.673915 0.524927 2.239
0.679637 0.524927 2.239
0.68291 0.523051 2.231
0.688611 0.523051 2.231
0.694313 0.523051 2.231
0.700014 0.523051 2.231
0.705716 0.523051 2.231
0.711417 0.523051 2.231
0.717119 0.523051 2.231
0.72282 0.523051 2.231
0.728522 0.523051 2.231
0.734223 0.523051 2.231
0.742578 0.524927 2.239
0.7483 0.524927 2.239
0.754022 0.524927 2.239
0.762459 0.526803 2.247
0.768201 0.526803 2.247
0.773943 0.526803 2.247
0.779686 0.526803 2.247
0.785428 0.526803 2.247
0.788354 0.524927 2.239
0.794075 0.524927 2.239
0.799797 0.524927 2.239
0.805519 0.524927 2.239
0.808343 0.523051 2.231
0.814044 0.523051 2.231
0.816806 0.521176 2.223
0.822487 0.521176 2.223
0.828168 0.521176 2.223
0.830848 0.5193 2.215
0.836509 0.5193 2.215
0.84217 0.5193 2.215
0.84783 0.5193 2.215
0.853491 0.5193 2.215
0.859151 0.5193 2.215
0.864812 0.5193 2.215
0.870473 0.5193 2.215
0.876133 0.5193 2.215
0.881794 0.5193 2.215
0.887454 0.5193 2.215
0.893115 0.5193 2.215
0.898776 0.5193 2.215
0.904436 0.5193 2.215
0.910097 0.5193 2.215
0.91245 0.517425 2.207
0.91809 0.517425 2.207
0.92373 0.517425 2.207
0.92937 0.517425 2.207
0.93501 0.517425 2.207
0.940651 0.517425 2.207
0.946291 0.517425 2.207
0.951931 0.517425 2.207
0.961042 0.5193 2.215
0.966703 0.5193 2.215
0.972363 0.5193 2.215
0.978024 0.5193 2.215
0.983685 0.5193 2.215
0.989345 0.5193 2.215
0.995006 0.5193 2.215
1.00067 0.5193 2.215
1.00633 0.5193 2.215
1.01199 0.5193 2.215
1.01765 0.5193 2.215
1.01961 0.517425 2.207
1.02525 0.517425 2.207
1.03089 0.517425 2.207
1.03653 0.517425 2.207
1.0384 0.515549 2.199
1.04402 0.515549 2.199
1.04964 0.515549 2.199
1.0519 0.513908 2.192
1.0575 0.513908 2.192
1.05922 0.512032 2.184
1.0648 0.512032 2.184
1.07038 0.512032 2.184
1.07596 0.512032 2.184
1.07758 0.510157 2.176
1.08314 0.510157 2.176
1.0887 0.510157 2.176
1.09427 0.510157 2.176
1.10387 0.512032 2.184
1.10945 0.512032 2.184
1.11503 0.512032 2.184
1.12472 0.513908 2.192
-0.924914 0.41594 1.755
-0.925674 0.41831 1.765
-0.926382 0.42068 1.775
-0.92704 0.42305 1.785
-0.925062 0.424235 1.79
-0.923059 0.42542 1.795
-0.92103 0.426605 1.8
-0.913884 0.42542 1.795
-0.909297 0.42542 1.795
-0.90471 0.42542 1.795
-0.900122 0.42542 1.795
-0.893041 0.424235 1.79
-0.885984 0.42305 1.785
-0.881423 0.42305 1.785
-0.874405 0.421865 1.78
-0.869856 0.421865 1.78
-0.865307 0.421865 1.78
-0.860758 0.421865 1.78
-0.856209 0.421865 1.78
-0.85166 0.421865 1.78
-0.847111 0.421865 1.78
-0.842562 0.421865 1.78
-0.838013 0.421865 1.78
-0.835806 0.42305 1.785
-0.833572 0.424235 1.79
-0.828998 0.424235 1.79
-0.824423 0.424235 1.79
-0.822139 0.42542 1.795
-0.819829 0.426605 1.8
-0.817494 0.42779 1.805
-0.815583 0.429212 1.811
-0.813194 0.430397 1.816
-0.810779 0.431582 1.821
-0.813208 0.435374 1.837
-0.820837 0.44201 1.865
-0.823072 0.445802 1.881
-0.830881 0.452675 1.91
-0.831189 0.455519 1.922
-0.834015 0.459785 1.94
-0.83675 0.464051 1.958
-0.839817 0.468554 1.977
-0.842787 0.473057 1.996
-0.84566 0.47756 2.015
-0.848853 0.4823 2.035
-0.851944 0.48704 2.055
-0.857817 0.493439 2.082
-0.863961 0.500076 2.11
-0.867521 0.50529 2.132
-0.870968 0.510504 2.154
-0.874303 0.515718 2.176
-0.877924 0.521169 2.199
-0.881825 0.526857 2.223
-0.88245 0.530649 2.239
-0.879861 0.532545 2.247
-0.880342 0.536337 2.263
-0.874559 0.536337 2.263
-0.871847 0.538233 2.271
-0.866044 0.538233 2.271
-0.86024 0.538233 2.271
-0.854436 0.538233 2.271
-0.848632 0.538233 2.271
-0.842829 0.538233 2.271
-0.840342 0.540366 2.28
-0.831221 0.538233 2.271
-0.828689 0.540366 2.28
-0.822862 0.540366 2.28
-0.819902 0.542262 2.288
-0.814055 0.542262 2.288
-0.811034 0.544158 2.296
-0.808322 0.546291 2.305
-0.805217 0.548187 2.313
-0.805526 0.552453 2.331
-0.802313 0.554349 2.339
-0.7994 0.556482 2.348
-0.799481 0.560748 2.366
-0.799471 0.565014 2.384
-0.796374 0.567147 2.393
-0.79323 0.56928 2.402
-0.790369 0.57165 2.412
-0.787131 0.573783 2.421
-0.783847 0.575916 2.43
-0.777637 0.575916 2.43
-0.771427 0.575916 2.43
-0.762383 0.573783 2.421
-0.756196 0.573783 2.421
-0.750009 0.573783 2.421
-0.743822 0.573783 2.421
-0.734892 0.57165 2.412
-0.728728 0.57165 2.412
-0.722564 0.57165 2.412
-0.719073 0.573783 2.421
-0.712886 0.573783 2.421
-0.706699 0.573783 2.421
-0.700512 0.573783 2.421
-0.694325 0.573783 2.421
-0.688138 0.573783 2.421
-0.681951 0.573783 2.421
-0.675764 0.573783 2.421
-0.669577 0.573783 2.421
-0.66339 0.573783 2.421
-0.657203 0.573783 2.421
-0.648596 0.57165 2.412
-0.642432 0.57165 2.412
-0.636268 0.57165 2.412
-0.627491 0.56928 2.402
-0.621353 0.56928 2.402
-0.612909 0.567147 2.393
-0.606794 0.567147 2.393
-0.600678 0.567147 2.393
-0.594563 0.567147 2.393
-0.588447 0.567147 2.393
-0.582332 0.567147 2.393
-0.576216 0.567147 2.393
-0.570101 0.567147 2.393
-0.563985 0.567147 2.393
-0.55787 0.567147 2.393
-0.551754 0.567147 2.393
-0.545639 0.567147 2.393
-0.539523 0.567147 2.393
-0.533408 0.567147 2.393
-0.525309 0.565014 2.384
-0.519217 0.565014 2.384
-0.513124 0.565014 2.384
-0.507032 0.565014 2.384
-0.500939 0.565014 2.384
-0.492979 0.562881 2.375
-0.486909 0.562881 2.375
-0.48084 0.562881 2.375
-0.47477 0.562881 2.375
-0.468701 0.562881 2.375
-0.462631 0.562881 2.375
-0.458292 0.565014 2.384
-0.452199 0.565014 2.384
-0.446107 0.565014 2.384
-0.440014 0.565014 2.384
-0.433922 0.565014 2.384
-0.427829 0.565014 2.384
-0.421737 0.565014 2.384
-0.417214 0.567147 2.393
-0.411098 0.567147 2.393
-0.404983 0.567147 2.393
-0.398867 0.567147 2.393
-0.392752 0.567147 2.393
-0.386636 0.567147 2.393
-0.380521 0.567147 2.393
-0.374405 0.567147 2.393
-0.36829 0.567147 2.393
-0.362174 0.567147 2.393
-0.356059 0.567147 2.393
-0.349943 0.567147 2.393
-0.343828 0.567147 2.393
-0.337712 0.567147 2.393
-0.331597 0.567147 2.393
-0.324257 0.565014 2.384
-0.318165 0.565014 2.384
-0.312072 0.565014 2.384
-0.30598 0.565014 2.384
-0.299887 0.565014 2.384
-0.293795 0.565014 2.384
-0.287702 0.565014 2.384
-0.28161 0.565014 2.384
-0.275517 0.565014 2.384
-0.269425 0.565014 2.384
-0.263332 0.565014 2.384
-0.25724 0.565014 2.384
-0.251147 0.565014 2.384
-0.245055 0.565014 2.384
-0.238962 0.565014 2.384
-0.23287 0.565014 2.384
-0.227633 0.567147 2.393
-0.221518 0.567147 2.393
-0.216213 0.56928 2.402
-0.210074 0.56928 2.402
-0.203936 0.56928 2.402
-0.197797 0.56928 2.402
-0.192457 0.57165 2.412
-0.186292 0.57165 2.412
-0.180128 0.57165 2.412
-0.173964 0.57165 2.412
-0.1678 0.57165 2.412
-0.160966 0.56928 2.402
-0.154828 0.56928 2.402
-0.148132 0.567147 2.393
-0.140948 0.562881 2.375
-0.133857 0.558615 2.357
-0.126857 0.554349 2.339
-0.119536 0.548187 2.313
-0.11279 0.544158 2.296
-0.105758 0.538233 2.271
-0.0992498 0.534441 2.255
-0.0928237 0.530649 2.239
-0.0864793 0.526857 2.223
-0.0805075 0.524961 2.215
-0.0745766 0.523065 2.207
-0.0686865 0.521169 2.199
-0.0628661 0.51951 2.192
-0.0570553 0.517614 2.184
-0.0514739 0.517614 2.184
-0.0458925 0.517614 2.184
-0.0401635 0.515718 2.176
-0.0347298 0.517614 2.184
-0.0291484 0.517614 2.184
-0.023567 0.517614 2.184
-0.0180515 0.51951 2.192
-0.0124497 0.51951 2.192
-0.0068479 0.51951 2.192
-0.00125006 0.521169 2.199
0.00436964 0.521169 2.199
0.0100257 0.523065 2.207
0.0156658 0.523065 2.207
0.0213832 0.524961 2.215
0.0270438 0.524961 2.215
0.0328225 0.526857 2.223
0.0385036 0.526857 2.223
0.0443436 0.528753 2.231
0.0500451 0.528753 2.231
0.0559465 0.530649 2.239
0.0616684 0.530649 2.239
0.0676311 0.532545 2.247
0.0733735 0.532545 2.247
0.0791159 0.532545 2.247
0.0851604 0.534441 2.255
0.0909232 0.534441 2.255
0.096686 0.534441 2.255
0.102812 0.536337 2.263
0.108596 0.536337 2.263
0.114379 0.536337 2.263
0.120162 0.536337 2.263
0.125945 0.536337 2.263
0.131729 0.536337 2.263
0.137026 0.534441 2.255
0.142789 0.534441 2.255
0.147497 0.530649 2.239
0.152672 0.528753 2.231
0.157805 0.526857 2.223
0.16231 0.523065 2.207
0.166808 0.51951 2.192
0.171781 0.517614 2.184
0.176144 0.514059 2.169
0.180431 0.510504 2.154
0.184641 0.506949 2.139
0.189485 0.50529 2.132
0.194293 0.503631 2.125
0.198972 0.501735 2.117
0.203706 0.500076 2.11
0.208405 0.498417 2.103
0.213779 0.498417 2.103
0.219154 0.498417 2.103
0.226023 0.501735 2.117
0.233838 0.506949 2.139
0.240983 0.510504 2.154
0.249005 0.515718 2.176
0.256438 0.51951 2.192
0.264789 0.524961 2.215
0.274357 0.532545 2.247
0.282093 0.536337 2.263
0.290039 0.540366 2.28
0.295866 0.540366 2.28
0.302751 0.542262 2.288
0.308598 0.542262 2.288
0.314446 0.542262 2.288
0.321413 0.544158 2.296
0.32614 0.542262 2.288
0.331987 0.542262 2.288
0.337834 0.542262 2.288
0.34248 0.540366 2.28
0.348306 0.540366 2.28
0.354133 0.540366 2.28
0.358539 0.538233 2.271
0.364343 0.538233 2.271
0.368842 0.536337 2.263
0.373301 0.534441 2.255
0.377719 0.532545 2.247
0.382096 0.530649 2.239
0.387818 0.530649 2.239
0.392134 0.528753 2.231
0.397836 0.528753 2.231
0.40209 0.526857 2.223
0.407771 0.526857 2.223
0.411964 0.524961 2.215
0.417625 0.524961 2.215
0.424814 0.526857 2.223
0.430495 0.526857 2.223
0.436176 0.526857 2.223
0.441857 0.526857 2.223
0.447538 0.526857 2.223
0.45322 0.526857 2.223
0.458901 0.526857 2.223
0.464582 0.526857 2.223
0.46857 0.524961 2.215
0.472518 0.523065 2.207
0.478158 0.523065 2.207
0.482045 0.521169 2.199
0.487664 0.521169 2.199
0.493284 0.521169 2.199
0.497316 0.51951 2.192
0.502918 0.51951 2.192
0.510143 0.521169 2.199
0.517639 0.523065 2.207
0.525176 0.524961 2.215
0.532754 0.526857 2.223
0.538435 0.526857 2.223
0.544116 0.526857 2.223
0.551776 0.528753 2.231
0.557477 0.528753 2.231
0.565198 0.530649 2.239
0.57092 0.530649 2.239
0.576642 0.530649 2.239
0.582364 0.530649 2.239
0.590187 0.532545 2.247
0.59593 0.532545 2.247
0.603814 0.534441 2.255
0.609577 0.534441 2.255
0.61534 0.534441 2.255
0.621103 0.534441 2.255
0.626865 0.534441 2.255
0.630384 0.532545 2.247
0.636126 0.532545 2.247
0.641869 0.532545 2.247
0.645305 0.530649 2.239
0.651027 0.530649 2.239
0.656749 0.530649 2.239
0.660104 0.528753 2.231
0.665806 0.528753 2.231
0.669099 0.526857 2.223
0.67478 0.526857 2.223
0.678012 0.524961 2.215
0.683673 0.524961 2.215
0.689334 0.524961 2.215
0.694994 0.524961 2.215
0.700655 0.524961 2.215
0.706315 0.524961 2.215
0.711976 0.524961 2.215
0.717637 0.524961 2.215
0.723297 0.524961 2.215
0.731591 0.526857 2.223
0.737272 0.526857 2.223
0.742953 0.526857 2.223
0.751328 0.528753 2.231
0.757029 0.528753 2.231
0.762731 0.528753 2.231
0.768432 0.528753 2.231
0.774134 0.528753 2.231
0.779835 0.528753 2.231
0.785537 0.528753 2.231
0.788401 0.526857 2.223
0.794082 0.526857 2.223
0.799763 0.526857 2.223
0.802545 0.524961 2.215
0.808206 0.524961 2.215
0.813867 0.524961 2.215
0.816567 0.523065 2.207
0.822207 0.523065 2.207
0.827848 0.523065 2.207
0.830467 0.521169 2.199
0.836086 0.521169 2.199
0.841706 0.521169 2.199
0.847326 0.521169 2.199
0.852945 0.521169 2.199
0.858565 0.521169 2.199
0.864185 0.521169 2.199
0.869805 0.521169 2.199
0.875424 0.521169 2.199
0.881044 0.521169 2.199
0.886664 0.521169 2.199
0.892283 0.521169 2.199
0.897903 0.521169 2.199
0.900647 0.51951 2.192
0.906248 0.51951 2.192
0.91185 0.51951 2.192
0.917452 0.51951 2.192
0.923054 0.51951 2.192
0.928656 0.51951 2.192
0.934258 0.51951 2.192
0.939859 0.51951 2.192
0.94848 0.521169 2.199
0.9541 0.521169 2.199
0.95972 0.521169 2.199
0.96534 0.521169 2.199
0.970959 0.521169 2.199
0.980132 0.523065 2.207
0.982199 0.521169 2.199
0.987818 0.521169 2.199
0.993438 0.521169 2.199
0.999058 0.521169 2.199
1.00468 0.521169 2.199
1.0103 0.521169 2.199
1.01592 0.521169 2.199
1.01828 0.51951 2.192
1.02389 0.51951 2.192
1.02949 0.51951 2.192
1.03509 0.51951 2.192
1.03689 0.517614 2.184
1.04248 0.517614 2.184
1.04422 0.515718 2.176
1.04978 0.515718 2.176
1.05194 0.514059 2.169
1.05749 0.514059 2.169
1.06303 0.514059 2.169
1.06857 0.514059 2.169
1.07015 0.512163 2.161
1.07568 0.512163 2.161
1.0812 0.512163 2.161
1.08672 0.512163 2.161
1.09225 0.512163 2.161
1.09777 0.512163 2.161
1.10737 0.514059 2.169
1.11292 0.514059 2.169
-0.924914 0.420425 1.755
-0.925674 0.42282 1.765
-0.926382 0.425216 1.775
-0.92704 0.427611 1.785
-0.922478 0.427611 1.785
-0.920487 0.428809 1.79
-0.918471 0.430007 1.795
-0.913884 0.430007 1.795
-0.909297 0.430007 1.795
-0.90471 0.430007 1.795
-0.900122 0.430007 1.795
-0.893041 0.428809 1.79
-0.885984 0.427611 1.785
-0.878954 0.426414 1.78
-0.874405 0.426414 1.78
-0.867412 0.425216 1.775
-0.862876 0.425216 1.775
-0.85834 0.425216 1.775
-0.853804 0.425216 1.775
-0.849268 0.425216 1.775
-0.844732 0.425216 1.775
-0.840196 0.425216 1.775
-0.838013 0.426414 1.78
-0.835806 0.427611 1.785
-0.833572 0.428809 1.79
-0.828998 0.428809 1.79
-0.824423 0.428809 1.79
-0.822139 0.430007 1.795
-0.819829 0.431205 1.8
-0.817494 0.432403 1.805
-0.823072 0.450609 1.881
-0.826095 0.454921 1.899
-0.825999 0.457556 1.91
-0.828857 0.461868 1.928
-0.829058 0.464743 1.94
-0.831746 0.469055 1.958
-0.831809 0.47193 1.97
-0.834749 0.476481 1.989
-0.840511 0.48271 2.015
-0.843653 0.487501 2.035
-0.849577 0.493969 2.062
-0.852496 0.49876 2.082
-0.861417 0.507145 2.117
-0.862072 0.510738 2.132
-0.868276 0.517685 2.161
-0.87513 0.525112 2.192
-0.878652 0.530621 2.215
-0.88245 0.536371 2.239
-0.882993 0.540204 2.255
-0.883455 0.544037 2.271
-0.877651 0.544037 2.271
-0.875302 0.546193 2.28
-0.869476 0.546193 2.28
-0.863649 0.546193 2.28
-0.857822 0.546193 2.28
-0.851996 0.546193 2.28
-0.846169 0.546193 2.28
-0.840342 0.546193 2.28
-0.834515 0.546193 2.28
-0.828689 0.546193 2.28
-0.825749 0.548109 2.288
-0.819902 0.548109 2.288
-0.814055 0.548109 2.288
-0.811034 0.550026 2.296
-0.805166 0.550026 2.296
-0.802432 0.552182 2.305
-0.799306 0.554098 2.313
-0.796482 0.556254 2.322
-0.796335 0.560327 2.339
-0.793399 0.562483 2.348
-0.793435 0.566795 2.366
-0.790384 0.568951 2.375
-0.787286 0.571107 2.384
-0.784143 0.573263 2.393
-0.780953 0.575419 2.402
-0.774815 0.575419 2.402
-0.768676 0.575419 2.402
-0.765713 0.577814 2.412
-0.759549 0.577814 2.412
-0.753385 0.577814 2.412
-0.74722 0.577814 2.412
-0.741056 0.577814 2.412
-0.731846 0.575419 2.402
-0.725707 0.575419 2.402
-0.722564 0.577814 2.412
-0.7164 0.577814 2.412
-0.710236 0.577814 2.412
-0.704072 0.577814 2.412
-0.697908 0.577814 2.412
-0.691744 0.577814 2.412
-0.68558 0.577814 2.412
-0.679416 0.577814 2.412
-0.673252 0.577814 2.412
-0.667088 0.577814 2.412
-0.660924 0.577814 2.412
-0.652045 0.575419 2.402
-0.645907 0.575419 2.402
-0.637371 0.573263 2.393
-0.631256 0.573263 2.393
-0.62514 0.573263 2.393
-0.619025 0.573263 2.393
-0.610604 0.571107 2.384
-0.604511 0.571107 2.384
-0.598419 0.571107 2.384
-0.592327 0.571107 2.384
-0.586234 0.571107 2.384
-0.580142 0.571107 2.384
-0.574049 0.571107 2.384
-0.567957 0.571107 2.384
-0.561864 0.571107 2.384
-0.555772 0.571107 2.384
-0.549679 0.571107 2.384
-0.541534 0.568951 2.375
-0.535465 0.568951 2.375
-0.529396 0.568951 2.375
-0.523326 0.568951 2.375
-0.517257 0.568951 2.375
-0.50925 0.566795 2.366
-0.503204 0.566795 2.366
-0.497157 0.566795 2.366
-0.491111 0.566795 2.366
-0.485064 0.566795 2.366
-0.477195 0.564639 2.357
-0.471172 0.564639 2.357
-0.465148 0.564639 2.357
-0.459125 0.564639 2.357
-0.454832 0.566795 2.366
-0.448785 0.566795 2.366
-0.442739 0.566795 2.366
-0.436692 0.566795 2.366
-0.432284 0.568951 2.375
-0.426214 0.568951 2.375
-0.420145 0.568951 2.375
-0.414075 0.568951 2.375
-0.408006 0.568951 2.375
-0.401936 0.568951 2.375
-0.395867 0.568951 2.375
-0.389797 0.568951 2.375
-0.383728 0.568951 2.375
-0.377658 0.568951 2.375
-0.371589 0.568951 2.375
-0.365519 0.568951 2.375
-0.35945 0.568951 2.375
-0.35338 0.568951 2.375
-0.347311 0.568951 2.375
-0.341241 0.568951 2.375
-0.335172 0.568951 2.375
-0.329102 0.568951 2.375
-0.323033 0.568951 2.375
-0.316963 0.568951 2.375
-0.310894 0.568951 2.375
-0.304825 0.568951 2.375
