ply
format ascii 1.0
comment PCL generated
obj_info is_cyberware_data 0
obj_info is_mesh 0
obj_info is_warped 0
obj_info is_interlaced 0
obj_info num_cols 107161
obj_info num_rows 1
obj_info echo_rgb_offset_x 0
obj_info echo_rgb_offset_y 0
obj_info echo_rgb_offset_z 0
obj_info echo_rgb_frontfocus 0.0
obj_info echo_rgb_backfocus 0.0
obj_info echo_rgb_pixelsize 0.0
obj_info echo_rgb_centerpixel 0
obj_info echo_frames 1
obj_info echo_lgincr 0.0
element vertex 1897
property float x
property float y
property float z
end_header
0.181476 0.101231 0.523
0.182812 0.101231 0.523
0.183797 0.101037 0.522
0.185131 0.101037 0.522
0.186465 0.101037 0.522
0.187439 0.100844 0.521
0.18877 0.100844 0.521
0.189737 0.10065 0.52
0.190698 0.100457 0.519
0.191655 0.100263 0.518
0.194493 0.0996823 0.515
0.195429 0.0994888 0.514
0.195977 0.0991016 0.512
0.1969 0.0989081 0.511
0.230747 0.114393 0.591
0.231471 0.114006 0.589
0.232581 0.113812 0.588
0.233685 0.113618 0.587
0.234785 0.113425 0.586
0.235879 0.113231 0.585
0.236968 0.113038 0.584
0.238053 0.112844 0.583
0.239132 0.112651 0.582
0.240619 0.112651 0.582
0.24169 0.112457 0.581
0.242756 0.112264 0.58
0.243818 0.11207 0.579
0.244874 0.111876 0.578
0.245925 0.111683 0.577
0.247399 0.111683 0.577
0.248874 0.111683 0.577
0.250348 0.111683 0.577
0.251823 0.111683 0.577
0.252858 0.111489 0.576
0.253889 0.111296 0.575
0.255358 0.111296 0.575
0.256381 0.111102 0.574
0.257399 0.110909 0.573
0.258863 0.110909 0.573
0.259873 0.110715 0.572
0.260878 0.110522 0.571
0.262337 0.110522 0.571
0.263797 0.110522 0.571
0.265256 0.110522 0.571
0.266715 0.110522 0.571
0.268174 0.110522 0.571
0.269161 0.110328 0.57
0.270618 0.110328 0.57
0.271597 0.110134 0.569
0.273051 0.110134 0.569
0.274023 0.109941 0.568
0.275475 0.109941 0.568
0.276926 0.109941 0.568
0.277888 0.109747 0.567
0.279337 0.109747 0.567
0.280786 0.109747 0.567
-0.233186 0.0827599 0.422
-0.232107 0.0827599 0.422
-0.231029 0.0827599 0.422
-0.22995 0.0827599 0.422
-0.229414 0.082956 0.423
-0.228333 0.082956 0.423
-0.227252 0.082956 0.423
-0.226171 0.082956 0.423
-0.22509 0.082956 0.423
-0.224009 0.082956 0.423
-0.222928 0.082956 0.423
-0.222372 0.0831521 0.424
-0.221288 0.0831521 0.424
-0.220204 0.0831521 0.424
-0.219121 0.0831521 0.424
-0.218037 0.0831521 0.424
-0.216954 0.0831521 0.424
-0.216379 0.0833482 0.425
-0.215293 0.0833482 0.425
-0.214711 0.0835443 0.426
-0.213121 0.0833482 0.425
-0.212035 0.0833482 0.425
-0.210949 0.0833482 0.425
-0.210356 0.0835443 0.426
-0.209268 0.0835443 0.426
-0.208179 0.0835443 0.426
-0.20709 0.0835443 0.426
-0.230627 0.102763 0.524
-0.229725 0.10296 0.525
-0.228383 0.10296 0.525
-0.227042 0.10296 0.525
-0.22527 0.102763 0.524
-0.223931 0.102763 0.524
-0.222592 0.102763 0.524
-0.221253 0.102763 0.524
-0.219914 0.102763 0.524
-0.218575 0.102763 0.524
-0.217235 0.102763 0.524
-0.215896 0.102763 0.524
-0.214967 0.10296 0.525
-0.213625 0.10296 0.525
-0.212283 0.10296 0.525
-0.210942 0.10296 0.525
-0.209201 0.102763 0.524
-0.207465 0.102567 0.523
-0.205734 0.102371 0.522
-0.203226 0.101783 0.519
-0.200732 0.101195 0.516
-0.197095 0.100018 0.51
-0.193488 0.0988412 0.504
-0.189912 0.0976645 0.498
-0.186366 0.0964878 0.492
-0.183604 0.0957034 0.488
-0.181236 0.095115 0.485
-0.179254 0.0947228 0.483
-0.177651 0.0945267 0.482
-0.176053 0.0943306 0.481
-0.174461 0.0941345 0.48
-0.172873 0.0939384 0.479
-0.171649 0.0939384 0.479
-0.170425 0.0939384 0.479
-0.168848 0.0937422 0.478
-0.167626 0.0937422 0.478
-0.166404 0.0937422 0.478
-0.165183 0.0937422 0.478
-0.163618 0.0935461 0.477
-0.162399 0.0935461 0.477
-0.16118 0.0935461 0.477
-0.159961 0.0935461 0.477
-0.15841 0.09335 0.476
-0.157193 0.09335 0.476
-0.155977 0.09335 0.476
-0.15476 0.09335 0.476
-0.153544 0.09335 0.476
-0.152647 0.0935461 0.477
-0.151428 0.0935461 0.477
-0.150209 0.0935461 0.477
-0.149303 0.0937422 0.478
-0.148081 0.0937422 0.478
-0.146859 0.0937422 0.478
-0.145943 0.0939384 0.479
-0.144718 0.0939384 0.479
-0.143494 0.0939384 0.479
-0.142567 0.0941345 0.48
-0.141341 0.0941345 0.48
-0.140114 0.0941345 0.48
-0.138887 0.0941345 0.48
-0.137661 0.0941345 0.48
-0.136434 0.0941345 0.48
-0.134925 0.0939384 0.479
-0.133701 0.0939384 0.479
-0.132477 0.0939384 0.479
-0.131253 0.0939384 0.479
-0.130029 0.0939384 0.479
-0.128805 0.0939384 0.479
-0.127314 0.0937422 0.478
-0.126093 0.0937422 0.478
-0.124871 0.0937422 0.478
-0.12365 0.0937422 0.478
-0.122428 0.0937422 0.478
-0.121207 0.0937422 0.478
-0.119985 0.0937422 0.478
-0.119012 0.0939384 0.479
-0.117788 0.0939384 0.479
-0.116564 0.0939384 0.479
-0.11558 0.0941345 0.48
-0.114354 0.0941345 0.48
-0.113363 0.0943306 0.481
-0.1119 0.0941345 0.48
-0.110904 0.0943306 0.481
-0.109903 0.0945267 0.482
-0.107885 0.0949189 0.484
-0.106869 0.095115 0.485
-0.105629 0.095115 0.485
-0.104605 0.0953111 0.486
-0.103363 0.0953111 0.486
-0.102331 0.0955073 0.487
-0.101294 0.0957034 0.488
-0.100047 0.0957034 0.488
-0.0987999 0.0957034 0.488
-0.0975528 0.0957034 0.488
-0.0963057 0.0957034 0.488
-0.0950585 0.0957034 0.488
-0.0938114 0.0957034 0.488
-0.0925643 0.0957034 0.488
-0.0913172 0.0957034 0.488
-0.0900701 0.0957034 0.488
-0.0886409 0.0955073 0.487
-0.0873964 0.0955073 0.487
-0.0861518 0.0955073 0.487
-0.0850816 0.0957034 0.488
-0.0838345 0.0957034 0.488
-0.0825873 0.0957034 0.488
-0.0813402 0.0957034 0.488
-0.0800931 0.0957034 0.488
-0.078846 0.0957034 0.488
-0.0775989 0.0957034 0.488
-0.0763517 0.0957034 0.488
-0.0751046 0.0957034 0.488
-0.0738575 0.0957034 0.488
-0.0724616 0.0955073 0.487
-0.071217 0.0955073 0.487
-0.0701161 0.0957034 0.488
-0.068869 0.0957034 0.488
-0.0676219 0.0957034 0.488
-0.0663748 0.0957034 0.488
-0.0651277 0.0957034 0.488
-0.0638805 0.0957034 0.488
-0.0626334 0.0957034 0.488
-0.0615121 0.0958995 0.489
-0.0603856 0.0960956 0.49
-0.0591334 0.0960956 0.49
-0.0579993 0.0962917 0.491
-0.0568601 0.0964878 0.492
-0.0556027 0.0964878 0.492
-0.0544559 0.0966839 0.493
-0.053196 0.0966839 0.493
-0.0519361 0.0966839 0.493
-0.050779 0.09688 0.494
-0.0495165 0.09688 0.494
-0.0471818 0.0972723 0.496
-0.0460994 0.0976645 0.498
-0.0449168 0.0978606 0.499
-0.043729 0.0980567 0.5
-0.0424512 0.0980567 0.5
-0.0412558 0.0982528 0.501
-0.0399754 0.0982528 0.501
-0.0387723 0.098449 0.502
-0.0374894 0.098449 0.502
-0.0362786 0.0986451 0.503
-0.0349932 0.0986451 0.503
-0.0337077 0.0986451 0.503
-0.0324223 0.0986451 0.503
-0.0311368 0.0986451 0.503
-0.0299107 0.0988412 0.504
-0.0286227 0.0988412 0.504
-0.0272805 0.0986451 0.503
-0.0260467 0.0988412 0.504
-0.0247587 0.0988412 0.504
-0.0234707 0.0988412 0.504
-0.0221387 0.0986451 0.503
-0.0208532 0.0986451 0.503
-0.0195677 0.0986451 0.503
-0.0182823 0.0986451 0.503
-0.016963 0.098449 0.502
-0.0156801 0.098449 0.502
-0.0143686 0.0982528 0.501
-0.0130882 0.0982528 0.501
-0.0118079 0.0982528 0.501
-0.0105275 0.0982528 0.501
-0.0092472 0.0982528 0.501
-0.00796686 0.0982528 0.501
-0.00668652 0.0982528 0.501
-0.00540617 0.0982528 0.501
-0.00412583 0.0982528 0.501
-0.00284549 0.0982528 0.501
-0.00156202 0.0980567 0.5
-0.000284234 0.0980567 0.5
0.000991566 0.0978606 0.499
0.0022668 0.0978606 0.499
0.00354203 0.0978606 0.499
0.00481726 0.0978606 0.499
0.00609249 0.0978606 0.499
0.00736772 0.0978606 0.499
0.00864295 0.0978606 0.499
0.00991818 0.0978606 0.499
0.0111934 0.0978606 0.499
0.0124936 0.0980567 0.5
0.0137714 0.0980567 0.5
0.0150492 0.0980567 0.5
0.016327 0.0980567 0.5
0.01764 0.0982528 0.501
0.0189203 0.0982528 0.501
0.0202007 0.0982528 0.501
0.021481 0.0982528 0.501
0.0227614 0.0982528 0.501
0.0240417 0.0982528 0.501
0.025322 0.0982528 0.501
0.0266024 0.0982528 0.501
0.0279384 0.098449 0.502
0.0292213 0.098449 0.502
0.0305042 0.098449 0.502
0.0317871 0.098449 0.502
0.0330041 0.0982528 0.501
0.0343529 0.098449 0.502
0.0355648 0.0982528 0.501
0.0368451 0.0982528 0.501
0.0381255 0.0982528 0.501
0.0394058 0.0982528 0.501
0.0406862 0.0982528 0.501
0.0419665 0.0982528 0.501
0.0432468 0.0982528 0.501
0.0445272 0.0982528 0.501
0.045899 0.098449 0.502
0.0471819 0.098449 0.502
0.0485613 0.0986451 0.503
0.0498468 0.0986451 0.503
0.0512339 0.0988412 0.504
0.0525219 0.0988412 0.504
0.0539166 0.0990373 0.505
0.0553165 0.0992334 0.506
0.0566096 0.0992334 0.506
0.0580172 0.0994295 0.507
0.0593129 0.0994295 0.507
0.0606086 0.0994295 0.507
0.0619042 0.0994295 0.507
0.0631999 0.0994295 0.507
0.0646228 0.0996256 0.508
0.065921 0.0996256 0.508
0.0673516 0.0998217 0.509
0.0686524 0.0998217 0.509
0.0699532 0.0998217 0.509
0.0713939 0.100018 0.51
0.0726973 0.100018 0.51
0.0741457 0.100214 0.511
0.0754516 0.100214 0.511
0.0769077 0.10041 0.512
0.0782162 0.10041 0.512
0.0795246 0.10041 0.512
0.0808331 0.10041 0.512
0.0821415 0.10041 0.512
0.083613 0.100606 0.513
0.084924 0.100606 0.513
0.086235 0.100606 0.513
0.087546 0.100606 0.513
0.088857 0.100606 0.513
0.0903438 0.100802 0.514
0.0916573 0.100802 0.514
0.0929709 0.100802 0.514
0.0942845 0.100802 0.514
0.095598 0.100802 0.514
0.0969116 0.100802 0.514
0.0984163 0.100998 0.515
0.0997324 0.100998 0.515
0.101245 0.101195 0.516
0.102961 0.101587 0.518
0.104486 0.101783 0.519
0.106016 0.101979 0.52
0.107552 0.102175 0.521
0.109301 0.102567 0.523
0.110849 0.102763 0.524
0.112402 0.10296 0.525
0.113961 0.103156 0.526
0.115524 0.103352 0.527
0.116871 0.103352 0.527
0.118218 0.103352 0.527
0.119564 0.103352 0.527
0.120911 0.103352 0.527
0.12249 0.103548 0.528
0.123839 0.103548 0.528
0.125189 0.103548 0.528
0.126778 0.103744 0.529
0.12813 0.103744 0.529
0.129482 0.103744 0.529
0.130586 0.103548 0.528
0.131935 0.103548 0.528
0.133285 0.103548 0.528
0.134634 0.103548 0.528
0.135726 0.103352 0.527
0.137073 0.103352 0.527
0.138157 0.103156 0.526
0.139236 0.10296 0.525
0.140578 0.10296 0.525
0.141919 0.10296 0.525
0.143534 0.103156 0.526
0.144878 0.103156 0.526
0.146222 0.103156 0.526
0.147566 0.103156 0.526
0.148911 0.103156 0.526
0.150255 0.103156 0.526
0.151599 0.103156 0.526
0.152943 0.103156 0.526
0.154288 0.103156 0.526
0.155336 0.10296 0.525
0.156379 0.102763 0.524
0.157718 0.102763 0.524
0.159057 0.102763 0.524
0.16009 0.102567 0.523
0.161118 0.102371 0.522
0.162452 0.102371 0.522
0.163473 0.102175 0.521
0.164804 0.102175 0.521
0.166136 0.102175 0.521
0.167467 0.102175 0.521
0.169803 0.101979 0.52
0.171132 0.101979 0.52
0.17379 0.101979 0.52
0.175119 0.101979 0.52
0.176109 0.101783 0.519
0.177435 0.101783 0.519
0.178761 0.101783 0.519
0.180088 0.101783 0.519
0.181414 0.101783 0.519
0.18274 0.101783 0.519
0.184067 0.101783 0.519
0.185393 0.101783 0.519
0.186719 0.101783 0.519
0.188046 0.101783 0.519
0.189007 0.101587 0.518
0.190331 0.101587 0.518
0.191285 0.101391 0.517
0.192233 0.101195 0.516
0.193177 0.100998 0.515
0.193738 0.100606 0.513
0.194669 0.10041 0.512
0.195594 0.100214 0.511
0.196129 0.0998217 0.509
0.19743 0.0998217 0.509
0.232185 0.115119 0.587
0.232889 0.114726 0.585
0.233983 0.11453 0.584
0.235476 0.11453 0.584
0.236563 0.114334 0.583
0.238053 0.114334 0.583
0.239132 0.114138 0.582
0.240205 0.113942 0.581
0.241274 0.113746 0.58
0.242338 0.11355 0.579
0.243396 0.113354 0.578
0.24445 0.113157 0.577
0.245925 0.113157 0.577
0.24697 0.112961 0.576
0.248442 0.112961 0.576
0.249914 0.112961 0.576
0.25095 0.112765 0.575
0.252419 0.112765 0.575
0.253447 0.112569 0.574
0.25447 0.112373 0.573
0.255934 0.112373 0.573
0.2565 0.111981 0.571
0.25796 0.111981 0.571
0.258965 0.111785 0.57
0.260421 0.111785 0.57
0.261878 0.111785 0.57
0.263335 0.111785 0.57
0.264327 0.111589 0.569
0.265781 0.111589 0.569
0.267235 0.111589 0.569
0.268689 0.111589 0.569
0.269668 0.111392 0.568
0.27112 0.111392 0.568
0.272092 0.111196 0.567
0.273541 0.111196 0.567
0.27499 0.111196 0.567
0.275951 0.111 0.566
0.277398 0.111 0.566
0.278844 0.111 0.566
0.28029 0.111 0.566
-0.233186 0.0838383 0.422
-0.232107 0.0838383 0.422
-0.231576 0.084037 0.423
-0.230495 0.084037 0.423
-0.229414 0.084037 0.423
-0.228333 0.084037 0.423
-0.227252 0.084037 0.423
-0.226171 0.084037 0.423
-0.22509 0.084037 0.423
-0.224009 0.084037 0.423
-0.222928 0.084037 0.423
-0.221847 0.084037 0.423
-0.220766 0.084037 0.423
-0.220204 0.0842357 0.424
-0.219121 0.0842357 0.424
-0.218037 0.0842357 0.424
-0.216954 0.0842357 0.424
-0.21587 0.0842357 0.424
-0.215293 0.0844343 0.425
-0.214207 0.0844343 0.425
-0.213121 0.0844343 0.425
-0.211536 0.0842357 0.424
-0.210452 0.0842357 0.424
-0.209863 0.0844343 0.425
-0.208776 0.0844343 0.425
-0.20769 0.0844343 0.425
-0.221742 0.103705 0.522
-0.220408 0.103705 0.522
-0.218655 0.103507 0.521
-0.217323 0.103507 0.521
-0.215992 0.103507 0.521
-0.21466 0.103507 0.521
-0.213329 0.103507 0.521
-0.211997 0.103507 0.521
-0.210666 0.103507 0.521
-0.209334 0.103507 0.521
-0.208003 0.103507 0.521
-0.205878 0.103109 0.519
-0.204158 0.102911 0.518
-0.201659 0.102315 0.515
-0.199176 0.101719 0.512
-0.196322 0.100924 0.508
-0.193104 0.0999305 0.503
-0.189912 0.0989372 0.498
-0.18398 0.0971492 0.489
-0.18161 0.0965532 0.486
-0.179625 0.0961558 0.484
-0.17802 0.0959571 0.483
-0.176053 0.0955598 0.481
-0.174461 0.0953611 0.48
-0.173234 0.0953611 0.48
-0.171649 0.0951625 0.479
-0.170069 0.0949638 0.478
-0.168848 0.0949638 0.478
-0.167626 0.0949638 0.478
-0.166056 0.0947651 0.477
-0.164837 0.0947651 0.477
-0.163618 0.0947651 0.477
-0.162399 0.0947651 0.477
-0.16118 0.0947651 0.477
-0.159626 0.0945665 0.476
-0.15841 0.0945665 0.476
-0.157523 0.0947651 0.477
-0.156304 0.0947651 0.477
-0.155085 0.0947651 0.477
-0.153866 0.0947651 0.477
-0.152647 0.0947651 0.477
-0.151428 0.0947651 0.477
-0.150524 0.0949638 0.478
-0.149303 0.0949638 0.478
-0.148081 0.0949638 0.478
-0.147167 0.0951625 0.479
-0.145943 0.0951625 0.479
-0.144718 0.0951625 0.479
-0.143494 0.0951625 0.479
-0.142567 0.0953611 0.48
-0.141341 0.0953611 0.48
-0.140114 0.0953611 0.48
-0.138887 0.0953611 0.48
-0.137661 0.0953611 0.48
-0.136434 0.0953611 0.48
-0.135207 0.0953611 0.48
-0.133701 0.0951625 0.479
-0.132477 0.0951625 0.479
-0.131253 0.0951625 0.479
-0.130029 0.0951625 0.479
-0.128805 0.0951625 0.479
-0.127581 0.0951625 0.479
-0.126093 0.0949638 0.478
-0.124871 0.0949638 0.478
-0.12365 0.0949638 0.478
-0.122428 0.0949638 0.478
-0.121207 0.0949638 0.478
-0.119985 0.0949638 0.478
-0.118763 0.0949638 0.478
-0.117542 0.0949638 0.478
-0.116564 0.0951625 0.479
-0.11534 0.0951625 0.479
-0.114354 0.0953611 0.48
-0.113127 0.0953611 0.48
-0.1119 0.0953611 0.48
-0.111135 0.0957585 0.482
-0.109903 0.0957585 0.482
-0.108108 0.0963545 0.485
-0.107089 0.0965532 0.486
-0.105847 0.0965532 0.486
-0.10482 0.0967518 0.487
-0.103576 0.0967518 0.487
-0.102541 0.0969505 0.488
-0.101294 0.0969505 0.488
-0.100252 0.0971492 0.489
-0.0990023 0.0971492 0.489
-0.0977527 0.0971492 0.489
-0.0963057 0.0969505 0.488
-0.0950585 0.0969505 0.488
-0.0938114 0.0969505 0.488
-0.0925643 0.0969505 0.488
-0.0913172 0.0969505 0.488
-0.0900701 0.0969505 0.488
-0.0888229 0.0969505 0.488
-0.0873964 0.0967518 0.487
-0.0863287 0.0969505 0.488
-0.0850816 0.0969505 0.488
-0.0838345 0.0969505 0.488
-0.0825873 0.0969505 0.488
-0.0813402 0.0969505 0.488
-0.079929 0.0967518 0.487
-0.0786844 0.0967518 0.487
-0.0774398 0.0967518 0.487
-0.0761953 0.0967518 0.487
-0.0749507 0.0967518 0.487
-0.0737061 0.0967518 0.487
-0.0724616 0.0967518 0.487
-0.071217 0.0967518 0.487
-0.0699724 0.0967518 0.487
-0.068869 0.0969505 0.488
-0.0676219 0.0969505 0.488
-0.0663748 0.0969505 0.488
-0.0651277 0.0969505 0.488
-0.0638805 0.0969505 0.488
-0.0626334 0.0969505 0.488
-0.0615121 0.0971492 0.489
-0.0603856 0.0973478 0.49
-0.0591334 0.0973478 0.49
-0.0578812 0.0973478 0.49
-0.0567445 0.0975465 0.491
-0.0554897 0.0975465 0.491
-0.0543454 0.0977452 0.492
-0.0530881 0.0977452 0.492
-0.0519361 0.0979438 0.493
-0.0506762 0.0979438 0.493
-0.0495165 0.0981425 0.494
-0.0483517 0.0983412 0.495
-0.0471818 0.0985398 0.496
-0.0460069 0.0987385 0.497
-0.0449168 0.0991358 0.499
-0.0436415 0.0991358 0.499
-0.0424512 0.0993345 0.5
-0.0412558 0.0995332 0.501
-0.0399754 0.0995332 0.501
-0.0386951 0.0995332 0.501
-0.0374147 0.0995332 0.501
-0.0362065 0.0997319 0.502
-0.0349932 0.0999305 0.503
-0.0337077 0.0999305 0.503
-0.0324223 0.0999305 0.503
-0.0311368 0.0999305 0.503
-0.0298514 0.0999305 0.503
-0.0286227 0.100129 0.504
-0.0273347 0.100129 0.504
-0.0260467 0.100129 0.504
-0.0247587 0.100129 0.504
-0.0234707 0.100129 0.504
-0.0221387 0.0999305 0.503
-0.0208532 0.0999305 0.503
-0.0195677 0.0999305 0.503
-0.0182823 0.0999305 0.503
-0.016963 0.0997319 0.502
-0.0156801 0.0997319 0.502
-0.0143686 0.0995332 0.501
-0.0130882 0.0995332 0.501
-0.0118079 0.0995332 0.501
-0.0105275 0.0995332 0.501
-0.0092472 0.0995332 0.501
-0.00796686 0.0995332 0.501
-0.00668652 0.0995332 0.501
-0.00540617 0.0995332 0.501
-0.00412583 0.0995332 0.501
-0.00284549 0.0995332 0.501
-0.00156515 0.0995332 0.501
-0.000284234 0.0993345 0.5
0.000993553 0.0993345 0.5
0.00227134 0.0993345 0.5
0.00354203 0.0991358 0.499
0.00481726 0.0991358 0.499
0.00609249 0.0991358 0.499
0.00736772 0.0991358 0.499
0.00864295 0.0991358 0.499
0.00993806 0.0993345 0.5
0.0112158 0.0993345 0.5
0.0124936 0.0993345 0.5
0.0137714 0.0993345 0.5
0.0150793 0.0995332 0.501
0.0163596 0.0995332 0.501
0.01764 0.0995332 0.501
0.0189203 0.0995332 0.501
0.0202007 0.0995332 0.501
0.021481 0.0995332 0.501
0.0227614 0.0995332 0.501
0.0240417 0.0995332 0.501
0.0253726 0.0997319 0.502
0.0266555 0.0997319 0.502
0.0279384 0.0997319 0.502
0.0292213 0.0997319 0.502
0.0305042 0.0997319 0.502
0.0317871 0.0997319 0.502
0.03307 0.0997319 0.502
0.0342844 0.0995332 0.501
0.0355648 0.0995332 0.501
0.0368451 0.0995332 0.501
0.0381255 0.0995332 0.501
0.0394058 0.0995332 0.501
0.0406862 0.0995332 0.501
0.0419665 0.0995332 0.501
0.0432468 0.0995332 0.501
0.0445272 0.0995332 0.501
0.045899 0.0997319 0.502
0.0471819 0.0997319 0.502
0.0485613 0.0999305 0.503
0.0498468 0.0999305 0.503
0.0512339 0.100129 0.504
0.0526261 0.100328 0.505
0.0539166 0.100328 0.505
0.0553165 0.100527 0.506
0.0567215 0.100725 0.507
0.0580172 0.100725 0.507
0.0593129 0.100725 0.507
0.0606086 0.100725 0.507
0.0619042 0.100725 0.507
0.0633246 0.100924 0.508
0.0646228 0.100924 0.508
0.0660508 0.101123 0.509
0.0673516 0.101123 0.509
0.0686524 0.101123 0.509
0.0700906 0.101321 0.51
0.0713939 0.101321 0.51
0.0728398 0.10152 0.511
0.0741457 0.10152 0.511
0.0755993 0.101719 0.512
0.0769077 0.101719 0.512
0.0782162 0.101719 0.512
0.0795246 0.101719 0.512
0.0808331 0.101719 0.512
0.082302 0.101917 0.513
0.083613 0.101917 0.513
0.084924 0.101917 0.513
0.086235 0.101917 0.513
0.087546 0.101917 0.513
0.088857 0.101917 0.513
0.090168 0.101917 0.513
0.091479 0.101917 0.513
0.09279 0.101917 0.513
0.094101 0.101917 0.513
0.095598 0.102116 0.514
0.0969116 0.102116 0.514
0.0982252 0.102116 0.514
0.0997324 0.102315 0.515
0.101049 0.102315 0.515
0.102563 0.102513 0.516
0.104083 0.102712 0.517
0.105609 0.102911 0.518
0.107139 0.103109 0.519
0.108674 0.103308 0.52
0.110215 0.103507 0.521
0.11176 0.103705 0.522
0.113094 0.103705 0.522
0.114647 0.103904 0.523
0.115984 0.103904 0.523
0.11732 0.103904 0.523
0.118884 0.104103 0.524
0.119994 0.103904 0.523
0.121562 0.104103 0.524
0.122901 0.104103 0.524
0.12424 0.104103 0.524
0.125579 0.104103 0.524
0.126919 0.104103 0.524
0.128258 0.104103 0.524
0.129597 0.104103 0.524
0.130936 0.104103 0.524
0.132023 0.103904 0.523
0.134696 0.103904 0.523
0.135772 0.103705 0.522
0.137106 0.103705 0.522
0.138175 0.103507 0.521
0.139507 0.103507 0.521
0.140838 0.103507 0.521
0.142169 0.103507 0.521
0.14511 0.103705 0.522
0.146444 0.103705 0.522
0.147778 0.103705 0.522
0.149112 0.103705 0.522
0.150446 0.103705 0.522
0.15178 0.103705 0.522
0.153114 0.103705 0.522
0.154152 0.103507 0.521
0.155484 0.103507 0.521
0.156815 0.103507 0.521
0.157843 0.103308 0.52
0.159172 0.103308 0.52
0.160192 0.103109 0.519
0.161208 0.102911 0.518
0.162531 0.102911 0.518
0.163539 0.102712 0.517
0.16486 0.102712 0.517
0.16586 0.102513 0.516
0.167179 0.102513 0.516
0.168171 0.102315 0.515
0.169487 0.102315 0.515
0.170803 0.102315 0.515
0.172119 0.102315 0.515
0.173435 0.102315 0.515
0.174751 0.102315 0.515
0.176067 0.102315 0.515
0.177384 0.102315 0.515
0.1787 0.102315 0.515
0.180016 0.102315 0.515
0.181332 0.102315 0.515
0.183003 0.102513 0.516
0.184321 0.102513 0.516
0.18564 0.102513 0.516
0.186959 0.102513 0.516
0.188277 0.102513 0.516
0.189596 0.102513 0.516
0.190915 0.102513 0.516
0.191861 0.102315 0.515
0.192802 0.102116 0.514
0.193738 0.101917 0.513
0.194288 0.10152 0.511
0.194829 0.101123 0.509
0.195744 0.100924 0.508
0.196655 0.100725 0.507
0.19795 0.100725 0.507
0.198853 0.100527 0.506
0.233983 0.116023 0.584
0.235073 0.115824 0.583
0.236157 0.115625 0.582
0.237644 0.115625 0.582
0.238721 0.115427 0.581
0.239792 0.115228 0.58
0.240858 0.115029 0.579
0.241919 0.114831 0.578
0.243396 0.114831 0.578
0.24445 0.114632 0.577
0.245498 0.114433 0.576
0.246542 0.114235 0.575
0.248011 0.114235 0.575
0.249047 0.114036 0.574
0.250513 0.114036 0.574
0.251541 0.113837 0.573
0.252564 0.113639 0.572
0.253582 0.11344 0.571
0.254594 0.113241 0.57
0.256051 0.113241 0.57
0.257056 0.113043 0.569
0.25851 0.113043 0.569
0.259507 0.112844 0.568
0.260959 0.112844 0.568
0.262411 0.112844 0.568
0.263862 0.112844 0.568
0.265314 0.112844 0.568
0.266765 0.112844 0.568
0.268217 0.112844 0.568
0.269194 0.112645 0.567
0.270643 0.112645 0.567
0.272092 0.112645 0.567
0.273058 0.112447 0.566
0.274505 0.112447 0.566
0.275464 0.112248 0.565
0.276907 0.112248 0.565
0.278351 0.112248 0.565
0.279795 0.112248 0.565
-0.233186 0.0849168 0.422
-0.232657 0.085118 0.423
-0.231576 0.085118 0.423
-0.230495 0.085118 0.423
-0.229414 0.085118 0.423
-0.228333 0.085118 0.423
-0.227252 0.085118 0.423
-0.226171 0.085118 0.423
-0.22509 0.085118 0.423
-0.224009 0.085118 0.423
-0.222928 0.085118 0.423
-0.221847 0.085118 0.423
-0.220766 0.085118 0.423
-0.219685 0.085118 0.423
-0.218604 0.085118 0.423
-0.217523 0.085118 0.423
-0.216442 0.085118 0.423
-0.215361 0.085118 0.423
-0.214787 0.0853192 0.424
-0.213703 0.0853192 0.424
-0.212118 0.085118 0.423
-0.211037 0.085118 0.423
-0.207794 0.085118 0.423
-0.206713 0.085118 0.423
-0.220043 0.104234 0.518
-0.218719 0.104234 0.518
-0.216976 0.104033 0.517
-0.215655 0.104033 0.517
-0.214333 0.104033 0.517
-0.213012 0.104033 0.517
-0.2121 0.104234 0.518
-0.210777 0.104234 0.518
-0.209049 0.104033 0.517
-0.207325 0.103832 0.516
-0.206007 0.103832 0.516
-0.204291 0.103631 0.515
-0.202581 0.103429 0.514
-0.198009 0.102423 0.509
-0.195162 0.101618 0.505
-0.192336 0.100814 0.501
-0.18953 0.100009 0.497
-0.187124 0.099405 0.494
-0.184357 0.0986001 0.49
-0.181983 0.0979964 0.487
-0.179996 0.0975939 0.485
-0.17802 0.0971915 0.483
-0.176419 0.0969903 0.482
-0.174824 0.096789 0.481
-0.173234 0.0965878 0.48
-0.171649 0.0963866 0.479
-0.170069 0.0961854 0.478
-0.168848 0.0961854 0.478
-0.167626 0.0961854 0.478
-0.166056 0.0959841 0.477
-0.164837 0.0959841 0.477
-0.163618 0.0959841 0.477
-0.162399 0.0959841 0.477
-0.160842 0.0957829 0.476
-0.159626 0.0957829 0.476
-0.15841 0.0957829 0.476
-0.157523 0.0959841 0.477
-0.156304 0.0959841 0.477
-0.155085 0.0959841 0.477
-0.153866 0.0959841 0.477
-0.152647 0.0959841 0.477
-0.151746 0.0961854 0.478
-0.150524 0.0961854 0.478
-0.149303 0.0961854 0.478
-0.148391 0.0963866 0.479
-0.147167 0.0963866 0.479
-0.145943 0.0963866 0.479
-0.144718 0.0963866 0.479
-0.143494 0.0963866 0.479
-0.142567 0.0965878 0.48
-0.141341 0.0965878 0.48
-0.140114 0.0965878 0.48
-0.138887 0.0965878 0.48
-0.137661 0.0965878 0.48
-0.136434 0.0965878 0.48
-0.135207 0.0965878 0.48
-0.13398 0.0965878 0.48
-0.132754 0.0965878 0.48
-0.131253 0.0963866 0.479
-0.130029 0.0963866 0.479
-0.128805 0.0963866 0.479
-0.127581 0.0963866 0.479
-0.126093 0.0961854 0.478
-0.124871 0.0961854 0.478
-0.12365 0.0961854 0.478
-0.122428 0.0961854 0.478
-0.121207 0.0961854 0.478
-0.119985 0.0961854 0.478
-0.118763 0.0961854 0.478
-0.117542 0.0961854 0.478
-0.11632 0.0961854 0.478
-0.115099 0.0961854 0.478
-0.114115 0.0963866 0.479
-0.112891 0.0963866 0.479
-0.1119 0.0965878 0.48
-0.111135 0.0969903 0.482
-0.109903 0.0969903 0.482
-0.108108 0.0975939 0.485
-0.107089 0.0977952 0.486
-0.106065 0.0979964 0.487
-0.10482 0.0979964 0.487
-0.103788 0.0981976 0.488
-0.102541 0.0981976 0.488
-0.101502 0.0983988 0.489
-0.100252 0.0983988 0.489
-0.0990023 0.0983988 0.489
-0.0977527 0.0983988 0.489
-0.096503 0.0983988 0.489
-0.0950585 0.0981976 0.488
-0.0938114 0.0981976 0.488
-0.0925643 0.0981976 0.488
-0.0913172 0.0981976 0.488
-0.0900701 0.0981976 0.488
-0.0888229 0.0981976 0.488
-0.0875758 0.0981976 0.488
-0.0863287 0.0981976 0.488
-0.0850816 0.0981976 0.488
-0.0838345 0.0981976 0.488
-0.0825873 0.0981976 0.488
-0.0813402 0.0981976 0.488
-0.0800931 0.0981976 0.488
-0.0786844 0.0979964 0.487
-0.0774398 0.0979964 0.487
-0.0761953 0.0979964 0.487
-0.0749507 0.0979964 0.487
-0.0737061 0.0979964 0.487
-0.0723128 0.0977952 0.486
-0.071217 0.0979964 0.487
-0.0699724 0.0979964 0.487
-0.068869 0.0981976 0.488
-0.0676219 0.0981976 0.488
-0.0663748 0.0981976 0.488
-0.0651277 0.0981976 0.488
-0.0640114 0.0983988 0.489
-0.0627618 0.0983988 0.489
-0.0616379 0.0986001 0.49
-0.0603856 0.0986001 0.49
-0.0591334 0.0986001 0.49
-0.0579993 0.0988013 0.491
-0.0567445 0.0988013 0.491
-0.0554897 0.0988013 0.491
-0.0543454 0.0990025 0.492
-0.0530881 0.0990025 0.492
-0.0519361 0.0992037 0.493
-0.0506762 0.0992037 0.493
-0.0495165 0.099405 0.494
-0.0483517 0.0996062 0.495
-0.0471818 0.0998074 0.496
-0.0460069 0.100009 0.497
-0.0448267 0.10021 0.498
-0.0436415 0.100411 0.499
-0.0423663 0.100411 0.499
-0.0411734 0.100612 0.5
-0.0399754 0.100814 0.501
-0.0386951 0.100814 0.501
-0.0374147 0.100814 0.501
-0.0361344 0.100814 0.501
-0.0349236 0.101015 0.502
-0.0337077 0.101216 0.503
-0.0324223 0.101216 0.503
-0.0311368 0.101216 0.503
-0.0298514 0.101216 0.503
-0.0286227 0.101417 0.504
-0.0273347 0.101417 0.504
-0.0260467 0.101417 0.504
-0.0247587 0.101417 0.504
-0.0234707 0.101417 0.504
-0.0221827 0.101417 0.504
-0.0208532 0.101216 0.503
-0.0195677 0.101216 0.503
-0.0182823 0.101216 0.503
-0.0169968 0.101216 0.503
-0.0156801 0.101015 0.502
-0.0143972 0.101015 0.502
-0.0130882 0.100814 0.501
-0.0118079 0.100814 0.501
-0.0105275 0.100814 0.501
-0.0092472 0.100814 0.501
-0.00796686 0.100814 0.501
-0.00668652 0.100814 0.501
-0.00540617 0.100814 0.501
-0.00412583 0.100814 0.501
-0.00284549 0.100814 0.501
-0.00156515 0.100814 0.501
-0.000284234 0.100612 0.5
0.000993553 0.100612 0.5
0.00227134 0.100612 0.5
0.00354913 0.100612 0.5
0.00482691 0.100612 0.5
0.0061047 0.100612 0.5
0.00738249 0.100612 0.5
0.00866027 0.100612 0.5
0.00993806 0.100612 0.5
0.0112158 0.100612 0.5
0.0124936 0.100612 0.5
0.013799 0.100814 0.501
0.0150793 0.100814 0.501
0.0163596 0.100814 0.501
0.01764 0.100814 0.501
0.0189203 0.100814 0.501
0.0202007 0.100814 0.501
0.0215239 0.101015 0.502
0.0228068 0.101015 0.502
0.0240897 0.101015 0.502
0.0253726 0.101015 0.502
0.0267086 0.101216 0.503
0.027994 0.101216 0.503
0.0292213 0.101015 0.502
0.0305042 0.101015 0.502
0.0317871 0.101015 0.502
0.03307 0.101015 0.502
0.0342844 0.100814 0.501
0.0355648 0.100814 0.501
0.0368451 0.100814 0.501
0.0381255 0.100814 0.501
0.0394058 0.100814 0.501
0.0406862 0.100814 0.501
0.0419665 0.100814 0.501
0.0432468 0.100814 0.501
0.0445272 0.100814 0.501
0.045899 0.101015 0.502
0.0472758 0.101216 0.503
0.0485613 0.101216 0.503
0.0499458 0.101417 0.504
0.0512339 0.101417 0.504
0.0526261 0.101618 0.505
0.0540234 0.10182 0.506
0.0554259 0.102021 0.507
0.0567215 0.102021 0.507
0.0581316 0.102222 0.508
0.0594299 0.102222 0.508
0.0607281 0.102222 0.508
0.0620263 0.102222 0.508
0.0633246 0.102222 0.508
0.06475 0.102423 0.509
0.0660508 0.102423 0.509
0.0673516 0.102423 0.509
0.0686524 0.102423 0.509
0.0700906 0.102625 0.51
0.0713939 0.102625 0.51
0.0728398 0.102826 0.511
0.0742908 0.103027 0.512
0.0755993 0.103027 0.512
0.0769077 0.103027 0.512
0.0782162 0.103027 0.512
0.0795246 0.103027 0.512
0.0808331 0.103027 0.512
0.082302 0.103228 0.513
0.083613 0.103228 0.513
0.084924 0.103228 0.513
0.086235 0.103228 0.513
0.087546 0.103228 0.513
0.088857 0.103228 0.513
0.090168 0.103228 0.513
0.091479 0.103228 0.513
0.09279 0.103228 0.513
0.094101 0.103228 0.513
0.0954121 0.103228 0.513
0.0967231 0.103228 0.513
0.0982252 0.103429 0.514
0.0995387 0.103429 0.514
0.101049 0.103631 0.515
0.102365 0.103631 0.515
0.103681 0.103631 0.515
0.105201 0.103832 0.516
0.106726 0.104033 0.517
0.108256 0.104234 0.518
0.10958 0.104234 0.518
0.111118 0.104436 0.519
0.112444 0.104436 0.519
0.11377 0.104436 0.519
0.115319 0.104637 0.52
0.116647 0.104637 0.52
0.117976 0.104637 0.52
0.119305 0.104637 0.52
0.120634 0.104637 0.52
0.121963 0.104637 0.52
0.123292 0.104637 0.52
0.12486 0.104838 0.521
0.126192 0.104838 0.521
0.127523 0.104838 0.521
0.128608 0.104637 0.52
0.129936 0.104637 0.52
0.131265 0.104637 0.52
0.132339 0.104436 0.519
0.133408 0.104234 0.518
0.134732 0.104234 0.518
0.135793 0.104033 0.517
0.136849 0.103832 0.516
0.138168 0.103832 0.516
0.139486 0.103832 0.516
0.141078 0.104033 0.517
0.142399 0.104033 0.517
0.14372 0.104033 0.517
0.145042 0.104033 0.517
0.14797 0.104234 0.518
0.149293 0.104234 0.518
0.150617 0.104234 0.518
0.151648 0.104033 0.517
0.152673 0.103832 0.516
0.153992 0.103832 0.516
0.15531 0.103832 0.516
0.156629 0.103832 0.516
0.157642 0.103631 0.515
0.158958 0.103631 0.515
0.159963 0.103429 0.514
0.160963 0.103228 0.513
0.162274 0.103228 0.513
0.163266 0.103027 0.512
0.164574 0.103027 0.512
0.165559 0.102826 0.511
0.166864 0.102826 0.511
0.16817 0.102826 0.511
0.169145 0.102625 0.51
0.170448 0.102625 0.51
0.172088 0.102826 0.511
0.173394 0.102826 0.511
0.1747 0.102826 0.511
0.176006 0.102826 0.511
0.176965 0.102625 0.51
0.178268 0.102625 0.51
0.179571 0.102625 0.51
0.181229 0.102826 0.511
0.184201 0.103027 0.512
0.185872 0.103228 0.513
0.187183 0.103228 0.513
0.188494 0.103228 0.513
0.189805 0.103228 0.513
0.191116 0.103228 0.513
0.192052 0.103027 0.512
0.19336 0.103027 0.512
0.193908 0.102625 0.51
0.194829 0.102423 0.509
0.195359 0.102021 0.507
0.196267 0.10182 0.506
0.19756 0.10182 0.506
0.19846 0.101618 0.505
0.198959 0.101216 0.503
0.235073 0.117314 0.583
0.236157 0.117113 0.582
0.237644 0.117113 0.582
0.238721 0.116911 0.581
0.239792 0.11671 0.58
0.240858 0.116509 0.579
0.241919 0.116308 0.578
0.242975 0.116107 0.577
0.244026 0.115905 0.576
0.245072 0.115704 0.575
0.246113 0.115503 0.574
0.247148 0.115302 0.573
0.248613 0.115302 0.573
0.249641 0.1151 0.572
0.250663 0.114899 0.571
0.251681 0.114698 0.57
0.253138 0.114698 0.57
0.254148 0.114497 0.569
0.255153 0.114296 0.568
0.256604 0.114296 0.568
0.258056 0.114296 0.568
0.259051 0.114094 0.567
0.2605 0.114094 0.567
0.261949 0.114094 0.567
0.263398 0.114094 0.567
0.264847 0.114094 0.567
0.266296 0.114094 0.567
0.267272 0.113893 0.566
0.268719 0.113893 0.566
0.269688 0.113692 0.565
0.271132 0.113692 0.565
0.272576 0.113692 0.565
0.27402 0.113692 0.565
0.274976 0.113491 0.564
0.275927 0.113289 0.563
0.277366 0.113289 0.563
0.278805 0.113289 0.563
-0.233738 0.086199 0.423
-0.232657 0.086199 0.423
-0.231576 0.086199 0.423
-0.230495 0.086199 0.423
-0.229414 0.086199 0.423
-0.228333 0.086199 0.423
-0.227252 0.086199 0.423
-0.226171 0.086199 0.423
-0.22509 0.086199 0.423
-0.224009 0.086199 0.423
-0.222928 0.086199 0.423
-0.221847 0.086199 0.423
-0.220766 0.086199 0.423
-0.219685 0.086199 0.423
-0.218604 0.086199 0.423
-0.217523 0.086199 0.423
-0.216442 0.086199 0.423
-0.215361 0.086199 0.423
-0.21428 0.086199 0.423
-0.213199 0.086199 0.423
-0.212118 0.086199 0.423
-0.208381 0.0859952 0.422
-0.218344 0.104743 0.514
-0.216608 0.104539 0.513
-0.215297 0.104539 0.513
-0.213569 0.104335 0.512
-0.212675 0.104539 0.513
-0.210463 0.104743 0.514
-0.208742 0.104539 0.513
-0.207431 0.104539 0.513
-0.205718 0.104335 0.512
-0.20441 0.104335 0.512
-0.203101 0.104335 0.512
-0.201399 0.104132 0.511
-0.19931 0.103724 0.509
-0.196842 0.103113 0.506
-0.194389 0.102501 0.503
-0.191952 0.10189 0.5
-0.18953 0.101279 0.497
-0.187124 0.100667 0.494
-0.184733 0.100056 0.491
-0.182357 0.0994447 0.488
-0.180368 0.0990372 0.486
-0.17802 0.0984258 0.483
-0.176419 0.098222 0.482
-0.174824 0.0980183 0.481
-0.173234 0.0978145 0.48
-0.171649 0.0976107 0.479
-0.170069 0.0974069 0.478
-0.168848 0.0974069 0.478
-0.167626 0.0974069 0.478
-0.166056 0.0972032 0.477
-0.164837 0.0972032 0.477
-0.163275 0.0969994 0.476
-0.162059 0.0969994 0.476
-0.160842 0.0969994 0.476
-0.159626 0.0969994 0.476
-0.15841 0.0969994 0.476
-0.157523 0.0972032 0.477
-0.156304 0.0972032 0.477
-0.155085 0.0972032 0.477
-0.154189 0.0974069 0.478
-0.152967 0.0974069 0.478
-0.151746 0.0974069 0.478
-0.150524 0.0974069 0.478
-0.149615 0.0976107 0.479
-0.148391 0.0976107 0.479
-0.147167 0.0976107 0.479
-0.145943 0.0976107 0.479
-0.144718 0.0976107 0.479
-0.143494 0.0976107 0.479
-0.142567 0.0978145 0.48
-0.141341 0.0978145 0.48
-0.140114 0.0978145 0.48
-0.138887 0.0978145 0.48
-0.137661 0.0978145 0.48
-0.136434 0.0978145 0.48
-0.135207 0.0978145 0.48
-0.13398 0.0978145 0.48
-0.132754 0.0978145 0.48
-0.131527 0.0978145 0.48
-0.1303 0.0978145 0.48
-0.128805 0.0976107 0.479
-0.127581 0.0976107 0.479
-0.126357 0.0976107 0.479
-0.124871 0.0974069 0.478
-0.12365 0.0974069 0.478
-0.122428 0.0974069 0.478
-0.121207 0.0974069 0.478
-0.119734 0.0972032 0.477
-0.118515 0.0972032 0.477
-0.117296 0.0972032 0.477
-0.116077 0.0972032 0.477
-0.115099 0.0974069 0.478
-0.113877 0.0974069 0.478
-0.112891 0.0976107 0.479
-0.111667 0.0976107 0.479
-0.110904 0.0980183 0.481
-0.110131 0.0984258 0.483
-0.109348 0.0988334 0.485
-0.108331 0.0990372 0.486
-0.107089 0.0990372 0.486
-0.106065 0.099241 0.487
-0.105035 0.0994447 0.488
-0.103788 0.0994447 0.488
-0.102541 0.0994447 0.488
-0.101502 0.0996485 0.489
-0.100252 0.0996485 0.489
-0.0990023 0.0996485 0.489
-0.0977527 0.0996485 0.489
-0.096503 0.0996485 0.489
-0.0952533 0.0996485 0.489
-0.0938114 0.0994447 0.488
-0.0925643 0.0994447 0.488
-0.0913172 0.0994447 0.488
-0.0900701 0.0994447 0.488
-0.0888229 0.0994447 0.488
-0.0875758 0.0994447 0.488
-0.0863287 0.0994447 0.488
-0.0850816 0.0994447 0.488
-0.0838345 0.0994447 0.488
-0.0825873 0.0994447 0.488
-0.0813402 0.0994447 0.488
-0.0800931 0.0994447 0.488
-0.0786844 0.099241 0.487
-0.0774398 0.099241 0.487
-0.0761953 0.099241 0.487
-0.0749507 0.099241 0.487
-0.0735548 0.0990372 0.486
-0.0723128 0.0990372 0.486
-0.071217 0.099241 0.487
-0.0701161 0.0994447 0.488
-0.068869 0.0994447 0.488
-0.0676219 0.0994447 0.488
-0.0663748 0.0994447 0.488
-0.0652611 0.0996485 0.489
-0.0640114 0.0996485 0.489
-0.0628901 0.0998523 0.49
-0.0616379 0.0998523 0.49
-0.0605089 0.100056 0.491
-0.0592541 0.100056 0.491
-0.0579993 0.100056 0.491
-0.0567445 0.100056 0.491
-0.0556027 0.10026 0.492
-0.0543454 0.10026 0.492
-0.0530881 0.10026 0.492
-0.0519361 0.100464 0.493
-0.0506762 0.100464 0.493
-0.0495165 0.100667 0.494
-0.0483517 0.100871 0.495
-0.0471818 0.101075 0.496
-0.0460069 0.101279 0.497
-0.0448267 0.101483 0.498
-0.0435541 0.101483 0.498
-0.0423663 0.101686 0.499
-0.0410911 0.101686 0.499
-0.0398956 0.10189 0.5
-0.0386951 0.102094 0.501
-0.0374147 0.102094 0.501
-0.0361344 0.102094 0.501
-0.0349236 0.102298 0.502
-0.0337077 0.102501 0.503
-0.0324223 0.102501 0.503
-0.0311368 0.102501 0.503
-0.0298514 0.102501 0.503
-0.0285659 0.102501 0.503
-0.0273347 0.102705 0.504
-0.0260467 0.102705 0.504
-0.0247587 0.102705 0.504
-0.0234707 0.102705 0.504
-0.0221827 0.102705 0.504
-0.0208532 0.102501 0.503
-0.0195677 0.102501 0.503
-0.0182823 0.102501 0.503
-0.0169968 0.102501 0.503
-0.0156801 0.102298 0.502
-0.0143972 0.102298 0.502
-0.0130882 0.102094 0.501
-0.0118079 0.102094 0.501
-0.0105275 0.102094 0.501
-0.0092472 0.102094 0.501
-0.00796686 0.102094 0.501
-0.00668652 0.102094 0.501
-0.00540617 0.102094 0.501
-0.00412583 0.102094 0.501
-0.00284549 0.102094 0.501
-0.00156515 0.102094 0.501
-0.000284803 0.102094 0.501
0.00099554 0.102094 0.501
0.00227134 0.10189 0.5
0.00354913 0.10189 0.5
0.00482691 0.10189 0.5
0.0061047 0.10189 0.5
0.00738249 0.10189 0.5
0.00866027 0.10189 0.5
0.00995794 0.102094 0.501
0.0112383 0.102094 0.501
0.0125186 0.102094 0.501
0.013799 0.102094 0.501
0.0150793 0.102094 0.501
0.0163596 0.102094 0.501
0.0176752 0.102298 0.502
0.0189581 0.102298 0.502
0.020241 0.102298 0.502
0.0215239 0.102298 0.502
0.0228068 0.102298 0.502
0.0240897 0.102298 0.502
0.0254231 0.102501 0.503
0.0267086 0.102501 0.503
0.027994 0.102501 0.503
0.0292795 0.102501 0.503
0.0305649 0.102501 0.503
0.0317871 0.102298 0.502
0.03307 0.102298 0.502
0.0342844 0.102094 0.501
0.0355648 0.102094 0.501
0.0368451 0.102094 0.501
0.0381255 0.102094 0.501
0.0394058 0.102094 0.501
0.0406862 0.102094 0.501
0.0419665 0.102094 0.501
0.0433332 0.102298 0.502
0.0446161 0.102298 0.502
0.0459904 0.102501 0.503
0.0472758 0.102501 0.503
0.0486578 0.102705 0.504
0.0500449 0.102909 0.505
0.0513355 0.102909 0.505
0.0527303 0.103113 0.506
0.0541302 0.103317 0.507
0.0554259 0.103317 0.507
0.0568334 0.10352 0.508
0.0582461 0.103724 0.509
0.0594299 0.10352 0.508
0.0608476 0.103724 0.509
0.0621484 0.103724 0.509
0.0634492 0.103724 0.509
0.06475 0.103724 0.509
0.0660508 0.103724 0.509
0.0673516 0.103724 0.509
0.0686524 0.103724 0.509
0.0700906 0.103928 0.51
0.0713939 0.103928 0.51
0.0728398 0.104132 0.511
0.0741457 0.104132 0.511
0.0755993 0.104335 0.512
0.0769077 0.104335 0.512
0.0782162 0.104335 0.512
0.0795246 0.104335 0.512
0.0808331 0.104335 0.512
0.0821415 0.104335 0.512
0.083613 0.104539 0.513
0.084924 0.104539 0.513
0.086235 0.104539 0.513
0.087546 0.104539 0.513
0.088857 0.104539 0.513
0.090168 0.104539 0.513
0.091479 0.104539 0.513
0.09279 0.104539 0.513
0.094101 0.104539 0.513
0.0952261 0.104335 0.512
0.0967231 0.104539 0.513
0.0980341 0.104539 0.513
0.0995387 0.104743 0.514
0.100852 0.104743 0.514
0.102166 0.104743 0.514
0.103479 0.104743 0.514
0.104997 0.104947 0.515
0.106313 0.104947 0.515
0.107629 0.104947 0.515
0.109157 0.105151 0.516
0.110475 0.105151 0.516
0.112011 0.105354 0.517
0.113332 0.105354 0.517
0.114653 0.105354 0.517
0.115974 0.105354 0.517
0.117296 0.105354 0.517
0.118617 0.105354 0.517
0.119938 0.105354 0.517
0.121259 0.105354 0.517
0.122581 0.105354 0.517
0.124142 0.105558 0.518
0.125465 0.105558 0.518
0.126789 0.105558 0.518
0.127866 0.105354 0.517
0.128937 0.105151 0.516
0.130256 0.105151 0.516
0.131319 0.104947 0.515
0.132635 0.104947 0.515
0.133691 0.104743 0.514
0.134742 0.104539 0.513
0.135788 0.104335 0.512
0.137097 0.104335 0.512
0.138405 0.104335 0.512
0.139713 0.104335 0.512
0.141022 0.104335 0.512
0.14233 0.104335 0.512
0.147564 0.104335 0.512
0.148873 0.104335 0.512
0.150181 0.104335 0.512
0.15149 0.104335 0.512
0.152798 0.104335 0.512
0.154106 0.104335 0.512
0.155415 0.104335 0.512
0.156417 0.104132 0.511
0.157723 0.104132 0.511
0.158718 0.103928 0.51
0.159707 0.103724 0.509
0.161008 0.103724 0.509
0.16199 0.10352 0.508
0.163288 0.10352 0.508
0.164263 0.103317 0.507
0.165558 0.103317 0.507
0.166854 0.103317 0.507
0.167818 0.103113 0.506
0.169111 0.103113 0.506
0.170404 0.103113 0.506
0.171697 0.103113 0.506
0.17299 0.103113 0.506
0.174284 0.103113 0.506
0.175577 0.103113 0.506
0.17687 0.103113 0.506
0.178163 0.103113 0.506
0.182762 0.10352 0.508
0.184422 0.103724 0.509
0.186088 0.103928 0.51
0.187759 0.104132 0.511
0.189065 0.104132 0.511
0.190371 0.104132 0.511
0.191677 0.104132 0.511
0.192605 0.103928 0.51
0.193528 0.103724 0.509
0.194063 0.103317 0.507
0.194974 0.103113 0.506
0.195879 0.102909 0.505
0.196779 0.102705 0.504
0.197674 0.102501 0.503
0.198564 0.102298 0.502
0.199051 0.10189 0.5
0.237236 0.118396 0.581
0.242554 0.117377 0.576
0.243603 0.117174 0.575
0.244646 0.11697 0.574
0.245684 0.116766 0.573
0.246717 0.116562 0.572
0.247745 0.116358 0.571
0.248768 0.116155 0.57
0.250224 0.116155 0.57
0.25124 0.115951 0.569
0.25225 0.115747 0.568
0.253701 0.115747 0.568
0.254703 0.115543 0.567
0.256153 0.115543 0.567
0.257147 0.11534 0.566
0.258594 0.11534 0.566
0.26004 0.11534 0.566
0.261487 0.11534 0.566
0.262933 0.11534 0.566
0.264379 0.11534 0.566
0.265826 0.11534 0.566
0.2668 0.115136 0.565
0.268244 0.115136 0.565
0.269211 0.114932 0.564
0.270652 0.114932 0.564
0.272093 0.114932 0.564
0.27305 0.114728 0.563
0.274488 0.114728 0.563
0.275437 0.114524 0.562
0.276873 0.114524 0.562
0.27831 0.114524 0.562
-0.233738 0.08728 0.423
-0.232657 0.08728 0.423
-0.231576 0.08728 0.423
-0.230495 0.08728 0.423
-0.229414 0.08728 0.423
-0.228873 0.0874864 0.424
-0.227789 0.0874864 0.424
-0.226706 0.0874864 0.424
-0.22509 0.08728 0.423
-0.224009 0.08728 0.423
-0.222928 0.08728 0.423
-0.221847 0.08728 0.423
-0.220766 0.08728 0.423
-0.219685 0.08728 0.423
-0.218604 0.08728 0.423
-0.217523 0.08728 0.423
-0.216442 0.08728 0.423
-0.215361 0.08728 0.423
-0.21428 0.08728 0.423
-0.213199 0.104819 0.508
-0.211901 0.104819 0.508
-0.211017 0.105025 0.509
-0.209716 0.105025 0.509
-0.208415 0.105025 0.509
-0.207114 0.105025 0.509
-0.205814 0.105025 0.509
-0.204111 0.104819 0.508
-0.203212 0.105025 0.509
-0.201515 0.104819 0.508
-0.199822 0.104612 0.507
-0.198135 0.104406 0.506
-0.196064 0.103993 0.504
-0.194003 0.103581 0.502
-0.191568 0.102962 0.499
-0.18953 0.102549 0.497
-0.187124 0.10193 0.494
-0.184733 0.101311 0.491
-0.182731 0.100898 0.489
-0.180368 0.100279 0.486
-0.178388 0.0998665 0.484
-0.176785 0.0996602 0.483
-0.175188 0.0994538 0.482
-0.173234 0.0990412 0.48
-0.171649 0.0988348 0.479
-0.170069 0.0986285 0.478
-0.168848 0.0986285 0.478
-0.167626 0.0986285 0.478
-0.166056 0.0984222 0.477
-0.164837 0.0984222 0.477
-0.163275 0.0982158 0.476
-0.162059 0.0982158 0.476
-0.160842 0.0982158 0.476
-0.159626 0.0982158 0.476
-0.15841 0.0982158 0.476
-0.157523 0.0984222 0.477
-0.156304 0.0984222 0.477
-0.15541 0.0986285 0.478
-0.154189 0.0986285 0.478
-0.152967 0.0986285 0.478
-0.151746 0.0986285 0.478
-0.150839 0.0988348 0.479
-0.149615 0.0988348 0.479
-0.148391 0.0988348 0.479
-0.147167 0.0988348 0.479
-0.145943 0.0988348 0.479
-0.144718 0.0988348 0.479
-0.143794 0.0990412 0.48
-0.142567 0.0990412 0.48
-0.141341 0.0990412 0.48
-0.140114 0.0990412 0.48
-0.138887 0.0990412 0.48
-0.137661 0.0990412 0.48
-0.136434 0.0990412 0.48
-0.135207 0.0990412 0.48
-0.13398 0.0990412 0.48
-0.132754 0.0990412 0.48
-0.131527 0.0990412 0.48
-0.1303 0.0990412 0.48
-0.129074 0.0990412 0.48
-0.127581 0.0988348 0.479
-0.126357 0.0988348 0.479
-0.125133 0.0988348 0.479
-0.12365 0.0986285 0.478
-0.122428 0.0986285 0.478
-0.120953 0.0984222 0.477
-0.119734 0.0984222 0.477
-0.118515 0.0984222 0.477
-0.11705 0.0982158 0.476
-0.116077 0.0984222 0.477
-0.114858 0.0984222 0.477
-0.113877 0.0986285 0.478
-0.112656 0.0986285 0.478
-0.111667 0.0988348 0.479
-0.110131 0.0996602 0.483
-0.108331 0.100279 0.486
-0.107089 0.100279 0.486
-0.106065 0.100486 0.487
-0.105035 0.100692 0.488
-0.103788 0.100692 0.488
-0.102751 0.100898 0.489
-0.101502 0.100898 0.489
-0.100252 0.100898 0.489
-0.0992048 0.101105 0.49
-0.0979526 0.101105 0.49
-0.096503 0.100898 0.489
-0.0952533 0.100898 0.489
-0.0940037 0.100898 0.489
-0.092754 0.100898 0.489
-0.0913172 0.100692 0.488
-0.0900701 0.100692 0.488
-0.0888229 0.100692 0.488
-0.0875758 0.100692 0.488
-0.0863287 0.100692 0.488
-0.0850816 0.100692 0.488
-0.0838345 0.100692 0.488
-0.0825873 0.100692 0.488
-0.0813402 0.100692 0.488
-0.0800931 0.100692 0.488
-0.0786844 0.100486 0.487
-0.0774398 0.100486 0.487
-0.0761953 0.100486 0.487
-0.0747968 0.100279 0.486
-0.0735548 0.100279 0.486
-0.0723128 0.100279 0.486
-0.071217 0.100486 0.487
-0.0701161 0.100692 0.488
-0.068869 0.100692 0.488
-0.0677605 0.100898 0.489
-0.0665108 0.100898 0.489
-0.0653946 0.101105 0.49
-0.0641423 0.101105 0.49
-0.0628901 0.101105 0.49
-0.0617637 0.101311 0.491
-0.0605089 0.101311 0.491
-0.0592541 0.101311 0.491
-0.0579993 0.101311 0.491
-0.0567445 0.101311 0.491
-0.0556027 0.101517 0.492
-0.0543454 0.101517 0.492
-0.0530881 0.101517 0.492
-0.0519361 0.101724 0.493
-0.0506762 0.101724 0.493
-0.0495165 0.10193 0.494
-0.0483517 0.102136 0.495
-0.0471818 0.102343 0.496
-0.0460069 0.102549 0.497
-0.0447367 0.102549 0.497
-0.0435541 0.102755 0.498
-0.0423663 0.102962 0.499
-0.0410911 0.102962 0.499
-0.0398158 0.102962 0.499
-0.0386178 0.103168 0.5
-0.0373401 0.103168 0.5
-0.0361344 0.103374 0.501
-0.0348541 0.103374 0.501
-0.0336407 0.103581 0.502
-0.0323578 0.103581 0.502
-0.0311368 0.103787 0.503
-0.0298514 0.103787 0.503
-0.0285659 0.103787 0.503
-0.0272805 0.103787 0.503
-0.0260467 0.103993 0.504
-0.0247587 0.103993 0.504
-0.0234707 0.103993 0.504
-0.0221827 0.103993 0.504
-0.0208532 0.103787 0.503
-0.0195677 0.103787 0.503
-0.0182823 0.103787 0.503
-0.0169968 0.103787 0.503
-0.0157114 0.103787 0.503
-0.0143972 0.103581 0.502
-0.0130882 0.103374 0.501
-0.0118079 0.103374 0.501
-0.0105275 0.103374 0.501
-0.0092472 0.103374 0.501
-0.00796686 0.103374 0.501
-0.00668652 0.103374 0.501
-0.00540617 0.103374 0.501
-0.00412583 0.103374 0.501
-0.00284549 0.103374 0.501
-0.00156515 0.103374 0.501
-0.000284803 0.103374 0.501
0.00099554 0.103374 0.501
0.00227588 0.103374 0.501
0.00355622 0.103374 0.501
0.00483657 0.103374 0.501
0.00611691 0.103374 0.501
0.00739725 0.103374 0.501
0.0086776 0.103374 0.501
0.00995794 0.103374 0.501
0.0112383 0.103374 0.501
0.0125186 0.103374 0.501
0.0138265 0.103581 0.502
0.0151094 0.103581 0.502
0.0163923 0.103581 0.502
0.0177104 0.103787 0.503
0.0189959 0.103787 0.503
0.0202813 0.103787 0.503
0.0215668 0.103787 0.503
0.0228522 0.103787 0.503
0.0241377 0.103787 0.503
0.0254231 0.103787 0.503
0.0267086 0.103787 0.503
0.027994 0.103787 0.503
0.0292795 0.103787 0.503
0.0305649 0.103787 0.503
0.0318504 0.103787 0.503
0.03307 0.103581 0.502
0.0343529 0.103581 0.502
0.0356358 0.103581 0.502
0.0368451 0.103374 0.501
0.0382016 0.103581 0.502
0.0394845 0.103581 0.502
0.0406862 0.103374 0.501
0.0420503 0.103581 0.502
0.0433332 0.103581 0.502
0.0446161 0.103581 0.502
0.0459904 0.103787 0.503
0.0472758 0.103787 0.503
0.0486578 0.103993 0.504
0.0500449 0.1042 0.505
0.0513355 0.1042 0.505
0.0527303 0.104406 0.506
0.0541302 0.104612 0.507
0.0555352 0.104819 0.508
0.0569453 0.105025 0.509
0.0582461 0.105025 0.509
0.0595469 0.105025 0.509
0.0608476 0.105025 0.509
0.0621484 0.105025 0.509
0.0634492 0.105025 0.509
0.06475 0.105025 0.509
0.0660508 0.105025 0.509
0.0673516 0.105025 0.509
0.0687872 0.105231 0.51
0.0700906 0.105231 0.51
0.0713939 0.105231 0.51
0.0728398 0.105438 0.511
0.0741457 0.105438 0.511
0.0754516 0.105438 0.511
0.0767575 0.105438 0.511
0.0780634 0.105438 0.511
0.0793693 0.105438 0.511
0.0808331 0.105644 0.512
0.0821415 0.105644 0.512
0.08345 0.105644 0.512
0.0847584 0.105644 0.512
0.0860669 0.105644 0.512
0.0873754 0.105644 0.512
0.0886838 0.105644 0.512
0.0899923 0.105644 0.512
0.0913007 0.105644 0.512
0.0926092 0.105644 0.512
0.0939176 0.105644 0.512
0.0952261 0.105644 0.512
0.0965345 0.105644 0.512
0.097843 0.105644 0.512
0.0991514 0.105644 0.512
0.100656 0.10585 0.513
0.101967 0.10585 0.513
0.103278 0.10585 0.513
0.104589 0.10585 0.513
0.106107 0.106057 0.514
0.10742 0.106057 0.514
0.108734 0.106057 0.514
0.110261 0.106263 0.515
0.111577 0.106263 0.515
0.112894 0.106263 0.515
0.11421 0.106263 0.515
0.115526 0.106263 0.515
0.116842 0.106263 0.515
0.118158 0.106263 0.515
0.119474 0.106263 0.515
0.12079 0.106263 0.515
0.122106 0.106263 0.515
0.123423 0.106263 0.515
0.124739 0.106263 0.515
0.126055 0.106263 0.515
0.127124 0.106057 0.514
0.128187 0.10585 0.513
0.129246 0.105644 0.512
0.130299 0.105438 0.511
0.131348 0.105231 0.51
0.132391 0.105025 0.509
0.133692 0.105025 0.509
0.134727 0.104819 0.508
0.135758 0.104612 0.507
0.137053 0.104612 0.507
0.138349 0.104612 0.507
0.139645 0.104612 0.507
0.14094 0.104612 0.507
0.142236 0.104612 0.507
0.147419 0.104612 0.507
0.148715 0.104612 0.507
0.150306 0.104819 0.508
0.151604 0.104819 0.508
0.152903 0.104819 0.508
0.154201 0.104819 0.508
0.155193 0.104612 0.507
0.156489 0.104612 0.507
0.157784 0.104612 0.507
0.158766 0.104406 0.506
0.160059 0.104406 0.506
0.161034 0.1042 0.505
0.162324 0.1042 0.505
0.163291 0.103993 0.504
0.164579 0.103993 0.504
0.165867 0.103993 0.504
0.166823 0.103787 0.503
0.168108 0.103787 0.503
0.169394 0.103787 0.503
0.170679 0.103787 0.503
0.171965 0.103787 0.503
0.172906 0.103581 0.502
0.174189 0.103581 0.502
0.175472 0.103581 0.502
0.176755 0.103581 0.502
0.178037 0.103581 0.502
0.179678 0.103787 0.503
0.181323 0.103993 0.504
0.182973 0.1042 0.505
0.184629 0.104406 0.506
0.186289 0.104612 0.507
