ply
format ascii 1.0
comment PCL generated
obj_info is_cyberware_data 0
obj_info is_mesh 0
obj_info is_warped 0
obj_info is_interlaced 0
obj_info num_cols 107151
obj_info num_rows 1
obj_info echo_rgb_offset_x 0
obj_info echo_rgb_offset_y 0
obj_info echo_rgb_offset_z 0
obj_info echo_rgb_frontfocus 0.0
obj_info echo_rgb_backfocus 0.0
obj_info echo_rgb_pixelsize 0.0
obj_info echo_rgb_centerpixel 0
obj_info echo_frames 1
obj_info echo_lgincr 0.0
element vertex 1858
property float x
property float y
property float z
end_header
0.218643 0.0530845 0.875
0.220122 0.0529025 0.872
0.22184 0.0527812 0.87
0.223034 0.0525385 0.866
0.224466 0.0523565 0.863
0.225621 0.0521139 0.859
0.22649 0.0518105 0.854
0.22787 0.0516285 0.851
0.228152 0.0512038 0.844
0.227034 0.0504758 0.832
0.225855 0.0497478 0.82
0.223314 0.0482918 0.796
0.222234 0.0476244 0.785
0.221383 0.0470177 0.775
0.220482 0.0464111 0.765
0.220983 0.0461077 0.76
0.221459 0.0458044 0.755
0.221909 0.045501 0.75
0.222333 0.0451977 0.745
0.222732 0.0448944 0.74
0.223105 0.044591 0.735
0.223759 0.0443483 0.731
0.223776 0.0439843 0.725
0.224072 0.043681 0.72
0.22403 0.043317 0.714
0.223956 0.042953 0.708
0.224171 0.0426496 0.703
0.224039 0.0422856 0.697
0.224525 0.042043 0.693
0.224663 0.0417396 0.688
0.225434 0.0415576 0.685
0.225526 0.0412543 0.68
0.226261 0.0410723 0.677
0.226981 0.0408903 0.674
0.228025 0.0407689 0.672
0.228033 0.0404656 0.667
0.22836 0.0402229 0.663
0.228666 0.0399802 0.659
0.228603 0.0396769 0.654
0.228865 0.0394342 0.65
0.229108 0.0391916 0.646
0.229687 0.0390096 0.643
0.230611 0.0388882 0.641
0.231524 0.0387669 0.639
0.232428 0.0386455 0.637
0.233688 0.0385849 0.636
0.234573 0.0384635 0.634
0.235821 0.0384029 0.633
0.237064 0.0383422 0.632
0.238301 0.0382815 0.631
0.239534 0.0382209 0.63
0.240761 0.0381602 0.629
0.241983 0.0380995 0.628
0.243588 0.0380995 0.628
0.244802 0.0380389 0.627
0.246405 0.0380389 0.627
0.248007 0.0380389 0.627
0.248813 0.0379175 0.625
0.25041 0.0379175 0.625
0.251604 0.0378569 0.624
0.252793 0.0377962 0.623
0.254385 0.0377962 0.623
0.255978 0.0377962 0.623
0.25757 0.0377962 0.623
0.259162 0.0377962 0.623
0.260754 0.0377962 0.623
0.262767 0.0378569 0.624
0.264785 0.0379175 0.625
0.266809 0.0379782 0.626
0.268838 0.0380389 0.627
0.270871 0.0380995 0.628
0.272476 0.0380995 0.628
0.274517 0.0381602 0.629
0.276564 0.0382209 0.63
0.278174 0.0382209 0.63
0.279784 0.0382209 0.63
0.281394 0.0382209 0.63
0.283004 0.0382209 0.63
0.285066 0.0382815 0.631
0.286678 0.0382815 0.631
0.288748 0.0383422 0.632
0.290363 0.0383422 0.632
0.29244 0.0384029 0.633
0.294058 0.0384029 0.633
0.295675 0.0384029 0.633
0.297293 0.0384029 0.633
0.298911 0.0384029 0.633
0.301003 0.0384635 0.634
0.302623 0.0384635 0.634
0.304244 0.0384635 0.634
0.305864 0.0384635 0.634
0.307484 0.0384635 0.634
0.309104 0.0384635 0.634
0.311215 0.0385242 0.635
0.312837 0.0385242 0.635
0.31446 0.0385242 0.635
-0.230933 0.026301 0.416
-0.22987 0.026301 0.416
-0.229357 0.0263643 0.417
-0.228291 0.0263643 0.417
-0.227226 0.0263643 0.417
-0.22616 0.0263643 0.417
-0.225094 0.0263643 0.417
-0.224029 0.0263643 0.417
-0.223498 0.0264275 0.418
-0.222429 0.0264275 0.418
-0.221361 0.0264275 0.418
-0.22082 0.0264907 0.419
-0.220274 0.0265539 0.42
-0.219722 0.0266171 0.421
-0.219166 0.0266804 0.422
-0.218087 0.0266804 0.422
-0.217523 0.0267436 0.423
-0.216954 0.0268068 0.424
-0.21587 0.0268068 0.424
-0.215293 0.02687 0.425
-0.293477 0.0391986 0.62
-0.290951 0.0390722 0.618
-0.228307 0.0343937 0.544
-0.2265 0.0343304 0.543
-0.225112 0.0343304 0.543
-0.223313 0.0342672 0.542
-0.221109 0.0341408 0.54
-0.219729 0.0341408 0.54
-0.217944 0.0340775 0.539
-0.216567 0.0340775 0.539
-0.21479 0.0340143 0.538
-0.213415 0.0340143 0.538
-0.211646 0.0339511 0.537
-0.209882 0.0338879 0.536
-0.208123 0.0338246 0.535
-0.204673 0.0343937 0.544
-0.20403 0.0345201 0.546
-0.203377 0.0346465 0.548
-0.203083 0.0348362 0.551
-0.202407 0.0349627 0.553
-0.201357 0.0350259 0.554
-0.200302 0.0350891 0.555
-0.199242 0.0351523 0.556
-0.198177 0.0352156 0.557
-0.197107 0.0352788 0.558
-0.196031 0.035342 0.559
-0.194951 0.0354052 0.56
-0.19352 0.0354052 0.56
-0.192089 0.0354052 0.56
-0.190657 0.0354052 0.56
-0.188888 0.035342 0.559
-0.187125 0.0352788 0.558
-0.185366 0.0352156 0.557
-0.183612 0.0351523 0.556
-0.181863 0.0350891 0.555
-0.18012 0.0350259 0.554
-0.178059 0.0348994 0.552
-0.176328 0.0348362 0.551
-0.174285 0.0347098 0.549
-0.172567 0.0346465 0.548
-0.170855 0.0345833 0.547
-0.169147 0.0345201 0.546
-0.167444 0.0344569 0.545
-0.165747 0.0343937 0.544
-0.163752 0.0342672 0.542
-0.161768 0.0341408 0.54
-0.160091 0.0340775 0.539
-0.158419 0.0340143 0.538
-0.156169 0.0338246 0.535
-0.153933 0.033635 0.532
-0.136185 0.0314221 0.497
-0.134101 0.0312325 0.494
-0.13257 0.0311692 0.493
-0.13131 0.0311692 0.493
-0.129786 0.031106 0.492
-0.128267 0.0310428 0.491
-0.127013 0.0310428 0.491
-0.125758 0.0310428 0.491
-0.124249 0.0309796 0.49
-0.122746 0.0309164 0.489
-0.121497 0.0309164 0.489
-0.120001 0.0308531 0.488
-0.11851 0.0307899 0.487
-0.117025 0.0307267 0.486
-0.115783 0.0307267 0.486
-0.114305 0.0306635 0.485
-0.113066 0.0306635 0.485
-0.111827 0.0306635 0.485
-0.110587 0.0306635 0.485
-0.109348 0.0306635 0.485
-0.108331 0.0307267 0.486
-0.107089 0.0307267 0.486
-0.105847 0.0307267 0.486
-0.104605 0.0307267 0.486
-0.103576 0.0307899 0.487
-0.102541 0.0308531 0.488
-0.101294 0.0308531 0.488
-0.100047 0.0308531 0.488
-0.0987999 0.0308531 0.488
-0.0975528 0.0308531 0.488
-0.0963057 0.0308531 0.488
-0.0952533 0.0309164 0.489
-0.0940037 0.0309164 0.489
-0.092754 0.0309164 0.489
-0.0915043 0.0309164 0.489
-0.0902546 0.0309164 0.489
-0.089187 0.0309796 0.49
-0.0879347 0.0309796 0.49
-0.0866825 0.0309796 0.49
-0.0854303 0.0309796 0.49
-0.084178 0.0309796 0.49
-0.0829258 0.0309796 0.49
-0.0816736 0.0309796 0.49
-0.0804213 0.0309796 0.49
-0.0791691 0.0309796 0.49
-0.0779169 0.0309796 0.49
-0.0766646 0.0309796 0.49
-0.0754124 0.0309796 0.49
-0.0741602 0.0309796 0.49
-0.072908 0.0309796 0.49
-0.0716557 0.0309796 0.49
-0.0705472 0.0310428 0.491
-0.0692924 0.0310428 0.491
-0.0680376 0.0310428 0.491
-0.0667828 0.0310428 0.491
-0.065528 0.0310428 0.491
-0.0642732 0.0310428 0.491
-0.0631468 0.031106 0.492
-0.0618895 0.031106 0.492
-0.0607554 0.0311692 0.493
-0.0596161 0.0312325 0.494
-0.0584718 0.0312957 0.495
-0.0572068 0.0312957 0.495
-0.0559418 0.0312957 0.495
-0.0547872 0.0313589 0.496
-0.0534118 0.0312957 0.495
-0.0521468 0.0312957 0.495
-0.0508818 0.0312957 0.495
-0.0496167 0.0312957 0.495
-0.0483517 0.0312957 0.495
-0.0470867 0.0312957 0.495
-0.0458217 0.0312957 0.495
-0.0445567 0.0312957 0.495
-0.0433792 0.0313589 0.496
-0.0421116 0.0313589 0.496
-0.0409264 0.0314221 0.497
-0.0396563 0.0314221 0.497
-0.0384634 0.0314854 0.498
-0.0372654 0.0315486 0.499
-0.0359901 0.0315486 0.499
-0.0347149 0.0315486 0.499
-0.0334397 0.0315486 0.499
-0.0321644 0.0315486 0.499
-0.0309511 0.0316118 0.5
-0.0296733 0.0316118 0.5
-0.0283955 0.0316118 0.5
-0.0271178 0.0316118 0.5
-0.02584 0.0316118 0.5
-0.0245622 0.0316118 0.5
-0.0232844 0.0316118 0.5
-0.0220066 0.0316118 0.5
-0.0207703 0.031675 0.501
-0.0194899 0.031675 0.501
-0.0182096 0.031675 0.501
-0.0169293 0.031675 0.501
-0.0156489 0.031675 0.501
-0.0143686 0.031675 0.501
-0.0131144 0.0317383 0.502
-0.0118315 0.0317383 0.502
-0.0105486 0.0317383 0.502
-0.00926566 0.0317383 0.502
-0.00799866 0.0318015 0.503
-0.00671321 0.0318015 0.503
-0.00542775 0.0318015 0.503
-0.0041423 0.0318015 0.503
-0.00285685 0.0318015 0.503
-0.00157452 0.0318647 0.504
-0.000286508 0.0318647 0.504
0.00100349 0.0319279 0.505
0.00229405 0.0319279 0.505
0.00359172 0.0319912 0.506
0.00488484 0.0319912 0.506
0.00619017 0.0320544 0.507
0.00748584 0.0320544 0.507
0.00879884 0.0321176 0.508
0.0100971 0.0321176 0.508
0.0114177 0.0321808 0.509
0.0127185 0.0321808 0.509
0.0140469 0.032244 0.51
0.0153803 0.0323073 0.511
0.0167188 0.0323705 0.512
0.0180625 0.0324337 0.513
0.0194113 0.0324969 0.514
0.0207652 0.0325602 0.515
0.0220813 0.0325602 0.515
0.0234428 0.0326234 0.516
0.0248095 0.0326866 0.517
0.0348952 0.0396412 0.627
0.0364975 0.0396412 0.627
0.0380998 0.0396412 0.627
0.0397022 0.0396412 0.627
0.0412387 0.039578 0.626
0.04277 0.0395148 0.625
0.0443672 0.0395148 0.625
0.0461116 0.0396412 0.627
0.0477139 0.0396412 0.627
0.0493163 0.0396412 0.627
0.0509186 0.0396412 0.627
0.0525209 0.0396412 0.627
0.0542096 0.0397044 0.628
0.0559034 0.0397677 0.629
0.0575108 0.0397677 0.629
0.0591183 0.0397677 0.629
0.0606292 0.0397044 0.628
0.062135 0.0396412 0.627
0.0637374 0.0396412 0.627
0.0651313 0.0395148 0.625
0.066515 0.0393883 0.623
0.0678885 0.0392619 0.621
0.0691398 0.0390722 0.618
0.0706048 0.039009 0.617
0.0718306 0.0388193 0.614
0.0731606 0.0386929 0.612
0.0744804 0.0385664 0.61
0.07579 0.03844 0.608
0.0770894 0.0383135 0.606
0.0785083 0.0382503 0.605
0.0797898 0.0381238 0.603
0.0811959 0.0380606 0.602
0.0821847 0.0378077 0.598
0.0832929 0.0376181 0.595
0.0843858 0.0374284 0.592
0.17619 0.0683447 1.081
0.178622 0.0682183 1.079
0.180707 0.0679654 1.075
0.183113 0.067839 1.073
0.185509 0.0677125 1.071
0.187718 0.0675228 1.068
0.188843 0.0669538 1.059
0.189559 0.0662584 1.048
0.190036 0.0654997 1.036
0.190452 0.064741 1.024
0.190807 0.0639823 1.012
0.191673 0.0634133 1.003
0.19209 0.0618959 0.979
0.191809 0.0610108 0.965
0.192061 0.0603153 0.954
0.19246 0.0596831 0.944
0.193015 0.0591141 0.935
0.193732 0.0586083 0.927
0.194621 0.0581657 0.92
0.195901 0.0578496 0.915
0.197373 0.0575967 0.911
0.198824 0.0573438 0.907
0.200255 0.0570909 0.903
0.201666 0.056838 0.899
0.203055 0.0565851 0.895
0.204425 0.0563322 0.891
0.206238 0.0562058 0.889
0.207572 0.0559529 0.885
0.209122 0.0557632 0.882
0.210897 0.0556368 0.88
0.212419 0.0554471 0.877
0.214171 0.0553207 0.875
0.215665 0.055131 0.872
0.217394 0.0550046 0.87
0.219112 0.0548781 0.868
0.220565 0.0546884 0.865
0.222261 0.054562 0.863
0.223426 0.0543091 0.859
0.224833 0.0541194 0.856
0.22596 0.0538665 0.852
0.227334 0.0536769 0.849
0.227611 0.0532343 0.842
0.227034 0.0526021 0.832
0.223033 0.0502628 0.795
0.222234 0.0496305 0.785
0.221383 0.0489983 0.775
0.22077 0.0484293 0.766
0.221564 0.0481764 0.762
0.221752 0.0477971 0.756
0.222204 0.0474809 0.751
0.222632 0.0471648 0.746
0.223033 0.0468487 0.741
0.223713 0.0465958 0.737
0.223759 0.0462165 0.731
0.223776 0.0458371 0.725
0.224072 0.045521 0.72
0.224343 0.0452049 0.715
0.224273 0.0448256 0.709
0.224171 0.0444462 0.703
0.224361 0.0441301 0.698
0.224525 0.043814 0.693
0.224989 0.0435611 0.689
0.225434 0.0433082 0.685
0.225858 0.0430553 0.681
0.226596 0.0428656 0.678
0.227318 0.0426759 0.675
0.228025 0.0424863 0.672
0.228033 0.0421702 0.667
0.228865 0.0410954 0.65
0.229463 0.0409057 0.647
0.229687 0.0406528 0.643
0.230971 0.0405896 0.642
0.231524 0.0403999 0.639
0.232428 0.0402735 0.637
0.233321 0.040147 0.635
0.234573 0.0400838 0.634
0.235449 0.0399573 0.632
0.237064 0.0399573 0.632
0.237924 0.0398309 0.63
0.239153 0.0397677 0.629
0.240761 0.0397677 0.629
0.241983 0.0397044 0.628
0.243588 0.0397044 0.628
0.244802 0.0396412 0.627
0.246405 0.0396412 0.627
0.247611 0.039578 0.626
0.248813 0.0395148 0.625
0.25041 0.0395148 0.625
0.251604 0.0394515 0.624
0.252793 0.0393883 0.623
0.254385 0.0393883 0.623
0.255978 0.0393883 0.623
0.25757 0.0393883 0.623
0.259162 0.0393883 0.623
0.260754 0.0393883 0.623
0.262767 0.0394515 0.624
0.264785 0.0395148 0.625
0.266809 0.039578 0.626
0.268838 0.0396412 0.627
0.270871 0.0397044 0.628
0.272476 0.0397044 0.628
0.274517 0.0397677 0.629
0.276125 0.0397677 0.629
0.277732 0.0397677 0.629
0.279784 0.0398309 0.63
0.281394 0.0398309 0.63
0.283004 0.0398309 0.63
0.284614 0.0398309 0.63
0.286678 0.0398941 0.631
0.288291 0.0398941 0.631
0.290363 0.0399573 0.632
0.29244 0.0400206 0.633
0.294058 0.0400206 0.633
0.295675 0.0400206 0.633
0.297293 0.0400206 0.633
0.298911 0.0400206 0.633
0.301003 0.0400838 0.634
0.302623 0.0400838 0.634
0.304244 0.0400838 0.634
0.305864 0.0400838 0.634
0.307484 0.0400838 0.634
0.309104 0.0400838 0.634
0.311215 0.040147 0.635
0.312837 0.040147 0.635
0.31446 0.040147 0.635
-0.230933 0.0273641 0.416
-0.22987 0.0273641 0.416
-0.229357 0.0274299 0.417
-0.228291 0.0274299 0.417
-0.227226 0.0274299 0.417
-0.22616 0.0274299 0.417
-0.225094 0.0274299 0.417
-0.224566 0.0274957 0.418
-0.223498 0.0274957 0.418
-0.222429 0.0274957 0.418
-0.221891 0.0275615 0.419
-0.22082 0.0275615 0.419
-0.220274 0.0276273 0.42
-0.219722 0.027693 0.421
-0.219166 0.0277588 0.422
-0.218087 0.0277588 0.422
-0.217523 0.0278246 0.423
-0.216954 0.0278904 0.424
-0.21587 0.0278904 0.424
-0.215293 0.0279562 0.425
-0.214711 0.0280219 0.426
-0.23012 0.0358497 0.545
-0.228727 0.0358497 0.545
-0.226917 0.0357839 0.544
-0.225112 0.0357181 0.543
-0.223313 0.0356523 0.542
-0.221927 0.0356523 0.542
-0.220135 0.0355865 0.541
-0.218349 0.0355208 0.54
-0.216969 0.0355208 0.54
-0.215189 0.035455 0.539
-0.213812 0.035455 0.539
-0.212434 0.035455 0.539
-0.210665 0.0353892 0.538
-0.20929 0.0353892 0.538
-0.204778 0.036047 0.548
-0.20412 0.0361786 0.55
-0.203451 0.0363101 0.552
-0.202407 0.0363759 0.553
-0.201357 0.0364417 0.554
-0.200302 0.0365075 0.555
-0.199242 0.0365732 0.556
-0.198177 0.036639 0.557
-0.197107 0.0367048 0.558
-0.196031 0.0367706 0.559
-0.194603 0.0367706 0.559
-0.193174 0.0367706 0.559
-0.191746 0.0367706 0.559
-0.189977 0.0367048 0.558
-0.188551 0.0367048 0.558
-0.186789 0.036639 0.557
-0.185033 0.0365732 0.556
-0.183282 0.0365075 0.555
-0.181536 0.0364417 0.554
-0.179795 0.0363759 0.553
-0.178059 0.0363101 0.552
-0.176008 0.0361786 0.55
-0.173968 0.036047 0.548
-0.172253 0.0359812 0.547
-0.170542 0.0359154 0.546
-0.168837 0.0358497 0.545
-0.167137 0.0357839 0.544
-0.165138 0.0356523 0.542
-0.163148 0.0355208 0.54
-0.161169 0.0353892 0.538
-0.1592 0.0352576 0.536
-0.157241 0.0351261 0.534
-0.155001 0.0349288 0.531
-0.152776 0.0347314 0.528
-0.149993 0.0344025 0.523
-0.146382 0.0338763 0.515
-0.138285 0.0328896 0.5
-0.136185 0.0326923 0.497
-0.134372 0.0325607 0.495
-0.13257 0.0324291 0.493
-0.13131 0.0324291 0.493
-0.13005 0.0324291 0.493
-0.128529 0.0323634 0.492
-0.127013 0.0322976 0.491
-0.125758 0.0322976 0.491
-0.124503 0.0322976 0.491
-0.122997 0.0322318 0.49
-0.121497 0.032166 0.489
-0.120001 0.0321002 0.488
-0.118754 0.0321002 0.488
-0.117266 0.0320345 0.487
-0.115783 0.0319687 0.486
-0.114541 0.0319687 0.486
-0.113299 0.0319687 0.486
-0.111827 0.0319029 0.485
-0.110587 0.0319029 0.485
-0.109348 0.0319029 0.485
-0.108331 0.0319687 0.486
-0.107089 0.0319687 0.486
-0.105847 0.0319687 0.486
-0.104605 0.0319687 0.486
-0.103576 0.0320345 0.487
-0.102541 0.0321002 0.488
-0.101294 0.0321002 0.488
-0.100047 0.0321002 0.488
-0.0987999 0.0321002 0.488
-0.0975528 0.0321002 0.488
-0.0963057 0.0321002 0.488
-0.0952533 0.032166 0.489
-0.0940037 0.032166 0.489
-0.092754 0.032166 0.489
-0.0915043 0.032166 0.489
-0.0902546 0.032166 0.489
-0.089187 0.0322318 0.49
-0.0879347 0.0322318 0.49
-0.0866825 0.0322318 0.49
-0.0856046 0.0322976 0.491
-0.0843498 0.0322976 0.491
-0.083095 0.0322976 0.491
-0.0816736 0.0322318 0.49
-0.0804213 0.0322318 0.49
-0.0791691 0.0322318 0.49
-0.0779169 0.0322318 0.49
-0.0766646 0.0322318 0.49
-0.0754124 0.0322318 0.49
-0.0741602 0.0322318 0.49
-0.072908 0.0322318 0.49
-0.071802 0.0322976 0.491
-0.0705472 0.0322976 0.491
-0.0692924 0.0322976 0.491
-0.0680376 0.0322976 0.491
-0.0667828 0.0322976 0.491
-0.065528 0.0322976 0.491
-0.0644041 0.0323634 0.492
-0.0631468 0.0323634 0.492
-0.0620153 0.0324291 0.493
-0.0607554 0.0324291 0.493
-0.0596161 0.0324949 0.494
-0.0584718 0.0325607 0.495
-0.0572068 0.0325607 0.495
-0.0559418 0.0325607 0.495
-0.0546768 0.0325607 0.495
-0.0534118 0.0325607 0.495
-0.0521468 0.0325607 0.495
-0.0508818 0.0325607 0.495
-0.0496167 0.0325607 0.495
-0.0483517 0.0325607 0.495
-0.0470867 0.0325607 0.495
-0.0458217 0.0325607 0.495
-0.0445567 0.0325607 0.495
-0.0433792 0.0326265 0.496
-0.0421116 0.0326265 0.496
-0.0409264 0.0326923 0.497
-0.0396563 0.0326923 0.497
-0.0384634 0.032758 0.498
-0.0372654 0.0328238 0.499
-0.0359901 0.0328238 0.499
-0.0347149 0.0328238 0.499
-0.0334397 0.0328238 0.499
-0.0321644 0.0328238 0.499
-0.0309511 0.0328896 0.5
-0.0296733 0.0328896 0.5
-0.0283955 0.0328896 0.5
-0.0271178 0.0328896 0.5
-0.02584 0.0328896 0.5
-0.0245622 0.0328896 0.5
-0.0232844 0.0328896 0.5
-0.0220066 0.0328896 0.5
-0.0207703 0.0329554 0.501
-0.0194899 0.0329554 0.501
-0.0182096 0.0329554 0.501
-0.0169293 0.0329554 0.501
-0.0156489 0.0329554 0.501
-0.0143686 0.0329554 0.501
-0.0131144 0.0330212 0.502
-0.0118315 0.0330212 0.502
-0.0105486 0.0330212 0.502
-0.00928411 0.0330869 0.503
-0.00799866 0.0330869 0.503
-0.00671321 0.0330869 0.503
-0.00542775 0.0330869 0.503
-0.0041423 0.0330869 0.503
-0.00285685 0.0330869 0.503
-0.00157452 0.0331527 0.504
-0.000286508 0.0331527 0.504
0.00100349 0.0332185 0.505
0.00229405 0.0332185 0.505
0.00359172 0.0332843 0.506
0.00488484 0.0332843 0.506
0.00619017 0.0333501 0.507
0.00748584 0.0333501 0.507
0.00879884 0.0334158 0.508
0.0100971 0.0334158 0.508
0.0114177 0.0334816 0.509
0.0127185 0.0334816 0.509
0.0140469 0.0335474 0.51
0.0153803 0.0336132 0.511
0.0167188 0.0336789 0.512
0.0180625 0.0337447 0.513
0.0194113 0.0338105 0.514
0.0207652 0.0338763 0.515
0.0220813 0.0338763 0.515
0.0233974 0.0338763 0.515
0.0247615 0.0339421 0.516
0.0363811 0.041112 0.625
0.0378568 0.0409804 0.623
0.0394489 0.0409804 0.623
0.0409752 0.0409147 0.622
0.0424963 0.0408489 0.621
0.0440123 0.0407831 0.62
0.0456703 0.0408489 0.621
0.0473334 0.0409147 0.622
0.0490016 0.0409804 0.623
0.0505938 0.0409804 0.623
0.0523534 0.041112 0.625
0.054037 0.0411778 0.626
0.0558145 0.0413093 0.628
0.0574194 0.0413093 0.628
0.0590243 0.0413093 0.628
0.0605327 0.0412436 0.627
0.062135 0.0412436 0.627
0.0635341 0.041112 0.625
0.0651313 0.041112 0.625
0.0664082 0.0409147 0.622
0.0675605 0.0406515 0.618
0.069028 0.0405858 0.617
0.0702615 0.0403884 0.614
0.0713626 0.0401253 0.61
0.0726824 0.0399938 0.608
0.073992 0.0398622 0.606
0.0751668 0.0396649 0.603
0.0764533 0.0395333 0.601
0.0777297 0.0394017 0.599
0.0791282 0.039336 0.598
0.0805215 0.0392702 0.597
0.08136 0.0389413 0.592
0.082173 0.0386124 0.587
0.0829604 0.0382835 0.582
0.178622 0.0709758 1.079
0.180707 0.0707126 1.075
0.182771 0.0704495 1.071
0.185335 0.0703837 1.07
0.187718 0.0702522 1.068
0.188129 0.0693971 1.055
0.187931 0.0683446 1.039
0.188202 0.0674895 1.026
0.188034 0.0665028 1.011
0.188167 0.0656476 0.998
0.188615 0.0649241 0.987
0.189395 0.0643321 0.978
0.189343 0.0634769 0.965
0.189225 0.0626218 0.952
0.189041 0.0617667 0.939
0.18981 0.0612404 0.931
0.190538 0.0607142 0.923
0.191434 0.0602537 0.916
0.192717 0.0599249 0.911
0.193546 0.0594644 0.904
0.19499 0.0592013 0.9
0.196632 0.0590039 0.897
0.198259 0.0588066 0.894
0.199871 0.0586093 0.891
0.20124 0.0583461 0.887
0.203048 0.0582146 0.885
0.204382 0.0579515 0.881
0.206164 0.0578199 0.879
0.2077 0.0576226 0.876
0.209459 0.057491 0.874
0.210966 0.0572937 0.871
0.212702 0.0571621 0.869
0.214676 0.0570963 0.868
0.216144 0.056899 0.865
0.21785 0.0567674 0.863
0.21929 0.0565701 0.86
0.220973 0.0564386 0.858
0.222125 0.0561754 0.854
0.223783 0.0560439 0.852
0.225164 0.0558465 0.849
0.226263 0.0555834 0.845
0.221951 0.0515709 0.784
0.221383 0.0509789 0.775
0.221058 0.0504526 0.767
0.221855 0.0501895 0.763
0.222045 0.0497949 0.757
0.2225 0.049466 0.752
0.22293 0.0491371 0.747
0.223334 0.0488082 0.742
0.223713 0.0484793 0.737
0.223759 0.0480846 0.731
0.224084 0.0477557 0.726
0.224072 0.047361 0.72
0.224343 0.0470321 0.715
0.224273 0.0466375 0.709
0.22449 0.0463086 0.704
0.224682 0.0459797 0.699
0.224525 0.045585 0.693
0.224989 0.0453219 0.689
0.225763 0.0451245 0.686
0.225858 0.0447956 0.681
0.226596 0.0445983 0.678
0.227318 0.044401 0.675
0.228025 0.0442036 0.672
0.228375 0.0439405 0.668
0.228704 0.0436774 0.664
0.229463 0.0425591 0.647
0.230044 0.0423618 0.644
0.230971 0.0422302 0.642
0.231524 0.0420329 0.639
0.232428 0.0419014 0.637
0.233321 0.0417698 0.635
0.234573 0.041704 0.634
0.235449 0.0415725 0.632
0.236689 0.0415067 0.631
0.237924 0.0414409 0.63
0.239153 0.0413751 0.629
0.240378 0.0413093 0.628
0.241983 0.0413093 0.628
0.2432 0.0412436 0.627
0.244802 0.0412436 0.627
0.246405 0.0412436 0.627
0.247611 0.0411778 0.626
0.248813 0.041112 0.625
0.25041 0.041112 0.625
0.251604 0.0410462 0.624
0.252793 0.0409804 0.623
0.254385 0.0409804 0.623
0.255978 0.0409804 0.623
0.25757 0.0409804 0.623
0.259162 0.0409804 0.623
0.261591 0.041112 0.625
0.263188 0.041112 0.625
0.264785 0.041112 0.625
0.266809 0.0411778 0.626
0.268838 0.0412436 0.627
0.270871 0.0413093 0.628
0.272476 0.0413093 0.628
0.274081 0.0413093 0.628
0.275686 0.0413093 0.628
0.277732 0.0413751 0.629
0.27934 0.0413751 0.629
0.280947 0.0413751 0.629
0.283004 0.0414409 0.63
0.284614 0.0414409 0.63
0.286678 0.0415067 0.631
0.288291 0.0415067 0.631
0.290363 0.0415725 0.632
0.29244 0.0416382 0.633
0.294058 0.0416382 0.633
0.295675 0.0416382 0.633
0.297293 0.0416382 0.633
0.298911 0.0416382 0.633
0.300528 0.0416382 0.633
0.302146 0.0416382 0.633
0.304244 0.041704 0.634
0.305864 0.041704 0.634
0.307484 0.041704 0.634
0.309104 0.041704 0.634
0.310724 0.041704 0.634
0.312837 0.0417698 0.635
0.31446 0.0417698 0.635
-0.230933 0.0284273 0.416
-0.22987 0.0284273 0.416
-0.229357 0.0284956 0.417
-0.228291 0.0284956 0.417
-0.227226 0.0284956 0.417
-0.22616 0.0284956 0.417
-0.225094 0.0284956 0.417
-0.224566 0.0285639 0.418
-0.223498 0.0285639 0.418
-0.222429 0.0285639 0.418
-0.221891 0.0286323 0.419
-0.22082 0.0286323 0.419
-0.220274 0.0287006 0.42
-0.2192 0.0287006 0.42
-0.218646 0.0287689 0.421
-0.218087 0.0288373 0.422
-0.217523 0.0289056 0.423
-0.216442 0.0289056 0.423
-0.21587 0.0289739 0.424
-0.214711 0.0291106 0.426
-0.228727 0.0372424 0.545
-0.226917 0.0371741 0.544
-0.225527 0.0371741 0.544
-0.224137 0.0371741 0.544
-0.222337 0.0371058 0.543
-0.220949 0.0371058 0.543
-0.219157 0.0370374 0.542
-0.218174 0.0371058 0.543
-0.216387 0.0370374 0.542
-0.215002 0.0370374 0.542
-0.213617 0.0370374 0.542
-0.212623 0.0371058 0.543
-0.211236 0.0371058 0.543
-0.205899 0.0376525 0.551
-0.204862 0.0377208 0.552
-0.20382 0.0377891 0.553
-0.202773 0.0378575 0.554
-0.201357 0.0378575 0.554
-0.200302 0.0379258 0.555
-0.199242 0.0379941 0.556
-0.197821 0.0379941 0.556
-0.196753 0.0380625 0.557
-0.195681 0.0381308 0.558
-0.194255 0.0381308 0.558
-0.192829 0.0381308 0.558
-0.191403 0.0381308 0.558
-0.189977 0.0381308 0.558
-0.188551 0.0381308 0.558
-0.186789 0.0380625 0.557
-0.185033 0.0379941 0.556
-0.183282 0.0379258 0.555
-0.181536 0.0378575 0.554
-0.179795 0.0377891 0.553
-0.178059 0.0377208 0.552
-0.176008 0.0375841 0.55
-0.174285 0.0375158 0.549
-0.172253 0.0373791 0.547
-0.170542 0.0373108 0.546
-0.168837 0.0372424 0.545
-0.16683 0.0371058 0.543
-0.164833 0.0369691 0.541
-0.162846 0.0368324 0.539
-0.160869 0.0366958 0.537
-0.158606 0.0364908 0.534
-0.156652 0.0363541 0.532
-0.154125 0.0360808 0.528
-0.151908 0.0358758 0.525
-0.149132 0.0355341 0.52
-0.146098 0.0351241 0.514
-0.143094 0.0347141 0.508
-0.138285 0.0341674 0.5
-0.136185 0.0339624 0.497
-0.134372 0.0338257 0.495
-0.132838 0.0337574 0.494
-0.13131 0.033689 0.493
-0.13005 0.033689 0.493
-0.128529 0.0336207 0.492
-0.127271 0.0336207 0.492
-0.125758 0.0335524 0.491
-0.124503 0.0335524 0.491
-0.122997 0.033484 0.49
-0.121745 0.033484 0.49
-0.120247 0.0334157 0.489
-0.118754 0.0333474 0.488
-0.117266 0.033279 0.487
-0.115783 0.0332107 0.486
-0.114541 0.0332107 0.486
-0.113299 0.0332107 0.486
-0.112057 0.0332107 0.486
-0.110815 0.0332107 0.486
-0.109573 0.0332107 0.486
-0.108331 0.0332107 0.486
-0.107089 0.0332107 0.486
-0.106065 0.033279 0.487
-0.10482 0.033279 0.487
-0.103788 0.0333474 0.488
-0.102541 0.0333474 0.488
-0.101294 0.0333474 0.488
-0.100047 0.0333474 0.488
-0.0987999 0.0333474 0.488
-0.0975528 0.0333474 0.488
-0.096503 0.0334157 0.489
-0.0952533 0.0334157 0.489
-0.0940037 0.0334157 0.489
-0.092754 0.0334157 0.489
-0.0916914 0.033484 0.49
-0.0904392 0.033484 0.49
-0.089187 0.033484 0.49
-0.0879347 0.033484 0.49
-0.0868594 0.0335524 0.491
-0.0856046 0.0335524 0.491
-0.0843498 0.0335524 0.491
-0.083095 0.0335524 0.491
-0.0818403 0.0335524 0.491
-0.0805855 0.0335524 0.491
-0.0793307 0.0335524 0.491
-0.0780759 0.0335524 0.491
-0.0768211 0.0335524 0.491
-0.0755663 0.0335524 0.491
-0.0743115 0.0335524 0.491
-0.0730567 0.0335524 0.491
-0.071802 0.0335524 0.491
-0.0705472 0.0335524 0.491
-0.0692924 0.0335524 0.491
-0.0680376 0.0335524 0.491
-0.0667828 0.0335524 0.491
-0.065528 0.0335524 0.491
-0.0644041 0.0336207 0.492
-0.0631468 0.0336207 0.492
-0.0620153 0.033689 0.493
-0.0607554 0.033689 0.493
-0.0596161 0.0337574 0.494
-0.0584718 0.0338257 0.495
-0.0572068 0.0338257 0.495
-0.0559418 0.0338257 0.495
-0.0546768 0.0338257 0.495
-0.0534118 0.0338257 0.495
-0.0521468 0.0338257 0.495
-0.050779 0.0337574 0.494
-0.0496167 0.0338257 0.495
-0.0482541 0.0337574 0.494
-0.0470867 0.0338257 0.495
-0.0458217 0.0338257 0.495
-0.0445567 0.0338257 0.495
-0.0433792 0.033894 0.496
-0.0421116 0.033894 0.496
-0.0409264 0.0339624 0.497
-0.0396563 0.0339624 0.497
-0.0384634 0.0340307 0.498
-0.0372654 0.034099 0.499
-0.0359901 0.034099 0.499
-0.0347149 0.034099 0.499
-0.0334397 0.034099 0.499
-0.0322289 0.0341674 0.5
-0.0309511 0.0341674 0.5
-0.0296733 0.0341674 0.5
-0.0283955 0.0341674 0.5
-0.0271178 0.0341674 0.5
-0.02584 0.0341674 0.5
-0.0245622 0.0341674 0.5
-0.0232844 0.0341674 0.5
-0.0220506 0.0342357 0.501
-0.0207703 0.0342357 0.501
-0.0194899 0.0342357 0.501
-0.0182096 0.0342357 0.501
-0.0169293 0.0342357 0.501
-0.0156489 0.0342357 0.501
-0.0143972 0.0343041 0.502
-0.0131144 0.0343041 0.502
-0.0118315 0.0343041 0.502
-0.0105696 0.0343724 0.503
-0.00928411 0.0343724 0.503
-0.00799866 0.0343724 0.503
-0.00671321 0.0343724 0.503
-0.00542775 0.0343724 0.503
-0.0041423 0.0343724 0.503
-0.00285685 0.0343724 0.503
-0.00157139 0.0343724 0.503
-0.000286508 0.0344407 0.504
0.00100349 0.0345091 0.505
0.00229405 0.0345091 0.505
0.00359172 0.0345774 0.506
0.00488484 0.0345774 0.506
0.00619017 0.0346457 0.507
0.00748584 0.0346457 0.507
0.00879884 0.0347141 0.508
0.0101169 0.0347824 0.509
0.0114177 0.0347824 0.509
0.0127435 0.0348507 0.51
0.0140469 0.0348507 0.51
0.0153803 0.0349191 0.511
0.0167188 0.0349874 0.512
0.0180625 0.0350557 0.513
0.0194113 0.0351241 0.514
0.0207652 0.0351924 0.515
0.0220813 0.0351924 0.515
0.0233974 0.0351924 0.515
0.0363229 0.0426409 0.624
0.0378568 0.0425726 0.623
0.0393856 0.0425042 0.622
0.0408434 0.0423676 0.62
0.0424279 0.0423676 0.62
0.0438703 0.0422309 0.618
0.0455232 0.0422992 0.619
0.0488443 0.0424359 0.621
0.0504313 0.0424359 0.621
0.0521021 0.0425042 0.622
0.0538643 0.0426409 0.624
0.0556368 0.0427776 0.626
0.057328 0.0428459 0.627
0.0589303 0.0428459 0.627
0.0605327 0.0428459 0.627
0.0620359 0.0427776 0.626
0.0635341 0.0427092 0.625
0.0649229 0.0425726 0.623
0.0663015 0.0424359 0.621
0.0675605 0.0422309 0.618
0.0688042 0.0420259 0.615
0.0700326 0.0418209 0.612
0.0745435 0.0408642 0.598
0.0756901 0.0406592 0.595
0.0769511 0.0405225 0.593
0.0783342 0.0404542 0.592
0.0794425 0.0402492 0.589
0.0799857 0.0397708 0.582
0.0804932 0.0392925 0.575
0.0811073 0.0388825 0.569
0.186488 0.0725032 1.061
0.186881 0.0716148 1.048
0.186665 0.0705215 1.032
0.186001 0.0692915 1.014
0.185244 0.0680614 0.996
0.185527 0.0672414 0.984
0.18594 0.0664897 0.973
0.186296 0.0657381 0.962
0.187185 0.0651914 0.954
0.187039 0.064303 0.941
0.187229 0.0635513 0.93
0.187771 0.0629363 0.921
0.189093 0.0625947 0.916
0.189762 0.062048 0.908
0.191024 0.0617063 0.903
0.192047 0.0612963 0.897
0.19369 0.0610913 0.894
0.194878 0.0607496 0.889
0.196485 0.0605446 0.886
0.198301 0.0604079 0.884
0.199879 0.0602029 0.881
0.201213 0.0599296 0.877
0.20299 0.0597929 0.875
0.204523 0.0595879 0.872
0.206277 0.0594513 0.87
0.208021 0.0593146 0.868
0.209755 0.0591779 0.866
0.211478 0.0590412 0.864
0.213192 0.0589046 0.862
0.214645 0.0586996 0.859
0.216588 0.0586312 0.858
0.218271 0.0584946 0.856
0.219685 0.0582896 0.853
0.221345 0.0581529 0.851
0.222732 0.0579479 0.848
0.223573 0.0576062 0.843
0.225192 0.0574695 0.841
0.225719 0.0570595 0.835
0.221951 0.0535745 0.784
0.221669 0.0530278 0.776
0.221058 0.0524128 0.767
0.222146 0.0522078 0.764
0.222338 0.0517978 0.758
0.222796 0.0514561 0.753
0.22293 0.0510461 0.747
0.223635 0.0507727 0.743
0.223713 0.0503627 0.737
0.223759 0.0499527 0.731
0.223776 0.0495427 0.725
0.224072 0.049201 0.72
0.224343 0.0488594 0.715
0.224589 0.0485177 0.71
0.22449 0.0481077 0.704
0.224682 0.047766 0.699
0.224849 0.0474243 0.694
0.225316 0.047151 0.69
0.225763 0.0468777 0.686
0.226189 0.0466043 0.682
0.226596 0.046331 0.678
0.227318 0.046126 0.675
0.228025 0.045921 0.672
0.228375 0.0456476 0.668
0.229049 0.0454426 0.665
0.229013 0.0451009 0.66
0.229463 0.0442126 0.647
0.230044 0.0440076 0.644
0.230971 0.0438709 0.642
0.231524 0.0436659 0.639
0.232428 0.0435292 0.637
0.233321 0.0433926 0.635
0.234204 0.0432559 0.633
0.235076 0.0431192 0.631
0.236689 0.0431192 0.631
0.237924 0.0430509 0.63
0.238773 0.0429142 0.628
0.240378 0.0429142 0.628
0.241983 0.0429142 0.628
0.2432 0.0428459 0.627
0.244802 0.0428459 0.627
0.246405 0.0428459 0.627
0.247611 0.0427776 0.626
0.248813 0.0427092 0.625
0.25041 0.0427092 0.625
0.252008 0.0427092 0.625
0.253199 0.0426409 0.624
0.254794 0.0426409 0.624
0.255978 0.0425726 0.623
0.25757 0.0425726 0.623
0.259578 0.0426409 0.624
0.261591 0.0427092 0.625
0.263609 0.0427776 0.626
0.265209 0.0427776 0.626
0.267235 0.0428459 0.627
0.268838 0.0428459 0.627
0.270871 0.0429142 0.628
0.272476 0.0429142 0.628
0.274081 0.0429142 0.628
0.276125 0.0429826 0.629
0.277732 0.0429826 0.629
0.27934 0.0429826 0.629
0.280947 0.0429826 0.629
0.283004 0.0430509 0.63
0.284614 0.0430509 0.63
0.286678 0.0431192 0.631
0.288291 0.0431192 0.631
0.290363 0.0431876 0.632
0.29244 0.0432559 0.633
0.294058 0.0432559 0.633
0.295675 0.0432559 0.633
0.297293 0.0432559 0.633
0.298911 0.0432559 0.633
0.300528 0.0432559 0.633
0.302623 0.0433242 0.634
0.304244 0.0433242 0.634
0.305864 0.0433242 0.634
0.307484 0.0433242 0.634
0.309104 0.0433242 0.634
0.310724 0.0433242 0.634
0.312837 0.0433926 0.635
0.31446 0.0433926 0.635
-0.230933 0.0294904 0.416
-0.22987 0.0294904 0.416
-0.229357 0.0295613 0.417
-0.228291 0.0295613 0.417
-0.227226 0.0295613 0.417
-0.22616 0.0295613 0.417
-0.225634 0.0296322 0.418
-0.224566 0.0296322 0.418
-0.223498 0.0296322 0.418
-0.222429 0.0296322 0.418
-0.221891 0.0297031 0.419
-0.22082 0.0297031 0.419
-0.220274 0.0297739 0.42
-0.2192 0.0297739 0.42
-0.218646 0.0298448 0.421
-0.218087 0.0299157 0.422
-0.217523 0.0299866 0.423
-0.216442 0.0299866 0.423
-0.215361 0.0299866 0.423
-0.227334 0.0386352 0.545
-0.225941 0.0386352 0.545
-0.224549 0.0386352 0.545
-0.222746 0.0385643 0.544
-0.22037 0.0386352 0.545
-0.218977 0.0386352 0.545
-0.217585 0.0386352 0.545
-0.216589 0.0387061 0.546
-0.215193 0.0387061 0.546
-0.213798 0.0387061 0.546
-0.212792 0.038777 0.547
-0.20702 0.0392732 0.554
-0.205604 0.0392732 0.554
-0.204557 0.0393441 0.555
-0.203139 0.0393441 0.555
-0.20172 0.0393441 0.555
-0.200302 0.0393441 0.555
-0.197821 0.039415 0.556
-0.196753 0.0394859 0.557
-0.19533 0.0394859 0.557
-0.193906 0.0394859 0.557
-0.192483 0.0394859 0.557
-0.19106 0.0394859 0.557
-0.189636 0.0394859 0.557
-0.188213 0.0394859 0.557
-0.186454 0.039415 0.556
-0.1847 0.0393441 0.555
-0.182952 0.0392732 0.554
-0.181208 0.0392024 0.553
-0.17947 0.0391315 0.552
-0.177736 0.0390606 0.551
-0.175688 0.0389188 0.549
-0.17365 0.038777 0.547
-0.171938 0.0387061 0.546
-0.17023 0.0386352 0.545
-0.168218 0.0384935 0.543
-0.166215 0.0383517 0.541
-0.164223 0.0382099 0.539
-0.162242 0.0380681 0.537
-0.159971 0.0378554 0.534
-0.158012 0.0377137 0.532
-0.155769 0.037501 0.529
-0.153541 0.0372883 0.526
-0.15104 0.0370048 0.522
-0.148559 0.0367212 0.518
-0.145529 0.0362959 0.512
-0.142813 0.0359414 0.507
-0.140679 0.0357287 0.504
-0.138285 0.0354452 0.5
-0.136459 0.0353034 0.498
-0.134644 0.0351616 0.496
-0.132838 0.0350198 0.494
-0.13131 0.0349489 0.493
-0.13005 0.0349489 0.493
-0.12879 0.0349489 0.493
-0.127271 0.034878 0.492
-0.126014 0.034878 0.492
-0.124503 0.0348072 0.491
-0.123248 0.0348072 0.491
-0.121745 0.0347363 0.49
-0.120247 0.0346654 0.489
-0.118754 0.0345945 0.488
-0.117507 0.0345945 0.488
-0.116021 0.0345236 0.487
-0.114777 0.0345236 0.487
-0.113299 0.0344527 0.486
-0.112057 0.0344527 0.486
-0.110815 0.0344527 0.486
-0.109573 0.0344527 0.486
-0.108331 0.0344527 0.486
-0.107309 0.0345236 0.487
-0.106065 0.0345236 0.487
-0.10482 0.0345236 0.487
-0.103788 0.0345945 0.488
-0.102541 0.0345945 0.488
-0.101294 0.0345945 0.488
-0.100047 0.0345945 0.488
-0.0987999 0.0345945 0.488
-0.0977527 0.0346654 0.489
-0.096503 0.0346654 0.489
-0.0952533 0.0346654 0.489
-0.0940037 0.0346654 0.489
-0.092754 0.0346654 0.489
-0.0916914 0.0347363 0.49
-0.0904392 0.0347363 0.49
-0.089187 0.0347363 0.49
-0.0881142 0.0348072 0.491
-0.0868594 0.0348072 0.491
-0.0856046 0.0348072 0.491
-0.0845216 0.034878 0.492
-0.0832643 0.034878 0.492
-0.0818403 0.0348072 0.491
-0.0805855 0.0348072 0.491
-0.0793307 0.0348072 0.491
-0.0780759 0.0348072 0.491
-0.0768211 0.0348072 0.491
-0.0755663 0.0348072 0.491
-0.0743115 0.0348072 0.491
-0.0730567 0.0348072 0.491
-0.071802 0.0348072 0.491
-0.0706908 0.034878 0.492
-0.0692924 0.0348072 0.491
-0.0680376 0.0348072 0.491
-0.0667828 0.0348072 0.491
-0.065528 0.0348072 0.491
-0.0644041 0.034878 0.492
-0.0632752 0.0349489 0.493
-0.0620153 0.0349489 0.493
-0.0607554 0.0349489 0.493
-0.0596161 0.0350198 0.494
-0.0583537 0.0350198 0.494
-0.0572068 0.0350907 0.495
-0.0559418 0.0350907 0.495
-0.0546768 0.0350907 0.495
-0.0534118 0.0350907 0.495
-0.0520414 0.0350198 0.494
-0.050779 0.0350198 0.494
-0.0495165 0.0350198 0.494
-0.0482541 0.0350198 0.494
-0.0469916 0.0350198 0.494
-0.0458217 0.0350907 0.495
-0.0445567 0.0350907 0.495
-0.0432917 0.0350907 0.495
-0.0421116 0.0351616 0.496
-0.0409264 0.0352325 0.497
-0.0396563 0.0352325 0.497
-0.0384634 0.0353034 0.498
-0.0372654 0.0353743 0.499
-0.0359901 0.0353743 0.499
-0.0347149 0.0353743 0.499
-0.0334397 0.0353743 0.499
-0.0322289 0.0354452 0.5
-0.0309511 0.0354452 0.5
-0.0296733 0.0354452 0.5
-0.0283955 0.0354452 0.5
-0.0271178 0.0354452 0.5
-0.02584 0.0354452 0.5
-0.0245622 0.0354452 0.5
-0.0232844 0.0354452 0.5
-0.0220506 0.0355161 0.501
-0.0207703 0.0355161 0.501
-0.0194899 0.0355161 0.501
-0.0182096 0.0355161 0.501
-0.0169293 0.0355161 0.501
-0.0156489 0.0355161 0.501
-0.0143972 0.035587 0.502
-0.0131144 0.035587 0.502
-0.011855 0.0356578 0.503
-0.0105696 0.0356578 0.503
-0.00928411 0.0356578 0.503
-0.00799866 0.0356578 0.503
-0.00671321 0.0356578 0.503
-0.00542775 0.0356578 0.503
-0.0041423 0.0356578 0.503
-0.00286253 0.0357287 0.504
-0.00157452 0.0357287 0.504
-0.000286508 0.0357287 0.504
0.00100349 0.0357996 0.505
0.00229405 0.0357996 0.505
0.00359172 0.0358705 0.506
0.00488484 0.0358705 0.506
0.00619017 0.0359414 0.507
0.00748584 0.0359414 0.507
0.00879884 0.0360123 0.508
0.0101169 0.0360832 0.509
0.0114177 0.0360832 0.509
0.0127435 0.0361541 0.51
0.0140469 0.0361541 0.51
0.0153803 0.036225 0.511
0.0167188 0.0362959 0.512
0.0180625 0.0363667 0.513
0.0194113 0.0364376 0.514
0.0207652 0.0365085 0.515
0.0220813 0.0365085 0.515
0.0233974 0.0365085 0.515
0.0247615 0.0365794 0.516
0.0377353 0.0440229 0.621
0.0486084 0.0438102 0.618
0.0502689 0.0438811 0.619
0.0520184 0.0440229 0.621
0.0536917 0.0440938 0.622
0.0555479 0.0443065 0.625
0.0571451 0.0443065 0.625
0.0588363 0.0443774 0.626
0.0604361 0.0443774 0.626
0.0619368 0.0443065 0.625
0.0634324 0.0442356 0.624
0.0649229 0.0441647 0.623
0.0661947 0.043952 0.62
0.0706607 0.0428178 0.604
0.0717261 0.0425342 0.6
0.0740449 0.0421089 0.594
0.0751812 0.0418962 0.591
0.0761725 0.0416126 0.587
0.077408 0.0414709 0.585
0.0780938 0.0410455 0.579
0.0786114 0.0405493 0.572
0.0790933 0.040053 0.565
0.0807672 0.038777 0.547
0.0811136 0.0382808 0.54
0.0818544 0.0373592 0.527
0.0828855 0.0372174 0.525
0.0839063 0.0370756 0.523
0.0850799 0.0370048 0.522
0.0862483 0.0369339 0.521
0.182888 0.0687636 0.97
0.183647 0.0681256 0.961
0.18436 0.0674876 0.952
0.185223 0.0669205 0.944
0.18525 0.0660698 0.932
0.18582 0.0654318 0.923
0.186548 0.0648647 0.915
0.187648 0.0644393 0.909
0.188926 0.0640849 0.904
0.189755 0.0635886 0.897
0.190763 0.0631633 0.891
0.192173 0.0628797 0.887
0.193782 0.0626671 0.884
0.195154 0.0623835 0.88
0.19673 0.0621708 0.877
0.198291 0.0619582 0.874
0.199836 0.0617455 0.871
0.201598 0.0616037 0.869
0.203115 0.061391 0.866
0.204854 0.0612493 0.864
0.206583 0.0611075 0.862
0.208059 0.0608948 0.859
0.21001 0.0608239 0.858
0.211708 0.0606821 0.856
0.213146 0.0604695 0.853
0.215073 0.0603986 0.852
0.216741 0.0602568 0.85
0.218398 0.060115 0.848
0.219785 0.0599023 0.845
0.221419 0.0597606 0.843
0.222247 0.0594061 0.838
0.223853 0.0592643 0.836
0.224368 0.058839 0.83
0.224306 0.0582719 0.822
0.223652 0.057563 0.812
0.222472 0.056216 0.793
0.221951 0.055578 0.784
0.221669 0.0550109 0.776
0.221346 0.0544438 0.768
0.222146 0.0541602 0.764
0.222338 0.0537349 0.758
0.2225 0.0533095 0.752
0.22293 0.0529551 0.747
0.223334 0.0526006 0.742
0.223409 0.0521753 0.736
0.223759 0.0518208 0.731
0.223776 0.0513955 0.725
0.224072 0.051041 0.72
0.224343 0.0506866 0.715
0.224589 0.0503321 0.71
0.224809 0.0499777 0.705
0.225004 0.0496232 0.7
0.225497 0.0493397 0.696
0.225643 0.0489852 0.691
0.226092 0.0487017 0.687
0.226521 0.0484181 0.683
0.227264 0.0482054 0.68
0.227655 0.0479219 0.676
0.228025 0.0476383 0.672
0.228717 0.0474256 0.669
0.229049 0.0471421 0.665
0.22936 0.0468585 0.661
0.229302 0.0465041 0.656
0.22957 0.0462205 0.652
0.230172 0.0460078 0.649
0.230402 0.0457243 0.645
0.23133 0.0455825 0.643
0.231524 0.0452989 0.639
0.232428 0.0451571 0.637
0.233321 0.0450154 0.635
0.234204 0.0448736 0.633
0.235076 0.0447318 0.631
0.236314 0.0446609 0.63
0.237546 0.04459 0.629
0.238773 0.0445191 0.628
0.240378 0.0445191 0.628
0.241983 0.0445191 0.628
0.2432 0.0444482 0.627
0.244802 0.0444482 0.627
0.246405 0.0444482 0.627
0.248007 0.0444482 0.627
0.249609 0.0444482 0.627
0.250811 0.0443774 0.626
0.252411 0.0443774 0.626
0.253605 0.0443065 0.625
0.255202 0.0443065 0.625
0.256799 0.0443065 0.625
0.258397 0.0443065 0.625
0.259994 0.0443065 0.625
0.26201 0.0443774 0.626
0.263609 0.0443774 0.626
0.265633 0.0444482 0.627
0.267235 0.0444482 0.627
0.269266 0.0445191 0.628
0.270871 0.0445191 0.628
0.272476 0.0445191 0.628
0.274517 0.04459 0.629
0.276125 0.04459 0.629
0.277732 0.04459 0.629
0.27934 0.04459 0.629
0.281394 0.0446609 0.63
0.283004 0.0446609 0.63
0.285066 0.0447318 0.631
0.286678 0.0447318 0.631
0.288748 0.0448027 0.632
0.290363 0.0448027 0.632
0.29244 0.0448736 0.633
0.294058 0.0448736 0.633
0.295675 0.0448736 0.633
0.297293 0.0448736 0.633
0.298911 0.0448736 0.633
0.300528 0.0448736 0.633
0.302146 0.0448736 0.633
0.304244 0.0449445 0.634
0.305864 0.0449445 0.634
0.307484 0.0449445 0.634
0.309104 0.0449445 0.634
0.311215 0.0450154 0.635
0.312837 0.0450154 0.635
0.31446 0.0450154 0.635
-0.230933 0.0305535 0.416
-0.230423 0.0306269 0.417
-0.229357 0.0306269 0.417
-0.228291 0.0306269 0.417
-0.227226 0.0306269 0.417
-0.22616 0.0306269 0.417
-0.225634 0.0307004 0.418
-0.224566 0.0307004 0.418
-0.223498 0.0307004 0.418
-0.222429 0.0307004 0.418
-0.221891 0.0307738 0.419
-0.221347 0.0308473 0.42
-0.220274 0.0308473 0.42
-0.2192 0.0308473 0.42
-0.218646 0.0309207 0.421
-0.218087 0.0309942 0.422
-0.217009 0.0309942 0.422
-0.216442 0.0310676 0.423
-0.215361 0.0310676 0.423
-0.214787 0.0311411 0.424
-0.213703 0.0311411 0.424
-0.227751 0.0401015 0.546
-0.226356 0.0401015 0.546
-0.224961 0.0401015 0.546
-0.22217 0.0401015 0.546
-0.220775 0.0401015 0.546
-0.219781 0.0401749 0.547
-0.218383 0.0401749 0.547
-0.217382 0.0402484 0.548
-0.216376 0.0403218 0.549
-0.214973 0.0403218 0.549
-0.214348 0.0404687 0.551
-0.213326 0.0405421 0.552
-0.212299 0.0406156 0.553
-0.211267 0.040689 0.554
-0.21023 0.0407625 0.555
-0.209188 0.0408359 0.556
-0.207767 0.0408359 0.556
-0.206346 0.0408359 0.556
-0.204926 0.0408359 0.556
-0.203505 0.0408359 0.556
-0.20172 0.0407625 0.555
-0.200302 0.0407625 0.555
-0.197821 0.0408359 0.556
-0.1964 0.0408359 0.556
-0.194979 0.0408359 0.556
-0.193558 0.0408359 0.556
-0.192137 0.0408359 0.556
-0.190717 0.0408359 0.556
-0.189296 0.0408359 0.556
-0.187875 0.0408359 0.556
-0.186118 0.0407625 0.555
-0.184367 0.040689 0.554
-0.182621 0.0406156 0.553
-0.18088 0.0405421 0.552
-0.178819 0.0403953 0.55
-0.177091 0.0403218 0.549
-0.175048 0.0401749 0.547
-0.173333 0.0401015 0.546
-0.171308 0.0399546 0.544
-0.169605 0.0398811 0.543
-0.167598 0.0397342 0.541
-0.165601 0.0395874 0.539
-0.163614 0.0394405 0.537
-0.161638 0.0392936 0.535
-0.159671 0.0391467 0.533
-0.157418 0.0389263 0.53
-0.15518 0.038706 0.527
-0.152958 0.0384857 0.524
-0.150461 0.0381919 0.52
-0.147985 0.0378981 0.516
-0.145529 0.0376043 0.512
-0.142813 0.0372371 0.507
-0.140679 0.0370167 0.504
-0.138562 0.0367964 0.501
-0.136459 0.0365761 0.498
-0.134644 0.0364292 0.496
-0.133107 0.0363557 0.495
-0.131576 0.0362823 0.494
-0.130314 0.0362823 0.494
-0.12879 0.0362088 0.493
-0.12753 0.0362088 0.493
-0.126014 0.0361354 0.492
-0.124503 0.0360619 0.491
-0.123248 0.0360619 0.491
-0.121745 0.0359885 0.49
-0.120493 0.0359885 0.49
-0.118997 0.0359151 0.489
-0.117507 0.0358416 0.488
-0.11626 0.0358416 0.488
-0.114777 0.0357682 0.487
-0.113532 0.0357682 0.487
-0.112057 0.0356947 0.486
-0.110815 0.0356947 0.486
-0.109573 0.0356947 0.486
-0.108554 0.0357682 0.487
-0.107309 0.0357682 0.487
-0.106065 0.0357682 0.487
-0.10482 0.0357682 0.487
-0.103788 0.0358416 0.488
-0.102541 0.0358416 0.488
-0.101294 0.0358416 0.488
-0.100047 0.0358416 0.488
-0.0987999 0.0358416 0.488
-0.0977527 0.0359151 0.489
-0.096503 0.0359151 0.489
-0.0952533 0.0359151 0.489
-0.0940037 0.0359151 0.489
-0.092754 0.0359151 0.489
-0.0916914 0.0359885 0.49
-0.0904392 0.0359885 0.49
-0.089187 0.0359885 0.49
-0.0881142 0.0360619 0.491
-0.0868594 0.0360619 0.491
-0.0856046 0.0360619 0.491
-0.0845216 0.0361354 0.492
-0.0832643 0.0361354 0.492
-0.0820069 0.0361354 0.492
-0.0805855 0.0360619 0.491
-0.0793307 0.0360619 0.491
-0.0782349 0.0361354 0.492
-0.0768211 0.0360619 0.491
-0.0755663 0.0360619 0.491
-0.0743115 0.0360619 0.491
-0.0730567 0.0360619 0.491
-0.071802 0.0360619 0.491
-0.0706908 0.0361354 0.492
-0.0692924 0.0360619 0.491
-0.0681762 0.0361354 0.492
-0.0669188 0.0361354 0.492
-0.065528 0.0360619 0.491
-0.0644041 0.0361354 0.492
-0.0632752 0.0362088 0.493
-0.0620153 0.0362088 0.493
-0.0607554 0.0362088 0.493
-0.0596161 0.0362823 0.494
-0.0583537 0.0362823 0.494
-0.0570912 0.0362823 0.494
-0.0558288 0.0362823 0.494
-0.0545663 0.0362823 0.494
-0.0533039 0.0362823 0.494
-0.0520414 0.0362823 0.494
-0.0506762 0.0362088 0.493
-0.0494163 0.0362088 0.493
-0.0481564 0.0362088 0.493
-0.0469916 0.0362823 0.494
-0.0458217 0.0363557 0.495
-0.0445567 0.0363557 0.495
-0.0433792 0.0364292 0.496
-0.0421965 0.0365026 0.497
-0.0409264 0.0365026 0.497
-0.0396563 0.0365026 0.497
-0.0384634 0.0365761 0.498
-0.0372654 0.0366495 0.499
-0.0359901 0.0366495 0.499
-0.0347149 0.0366495 0.499
-0.0334397 0.0366495 0.499
-0.0322289 0.036723 0.5
-0.0309511 0.036723 0.5
-0.0296733 0.036723 0.5
-0.0283955 0.036723 0.5
-0.0271178 0.036723 0.5
-0.02584 0.036723 0.5
-0.0245622 0.036723 0.5
-0.023331 0.0367964 0.501
-0.0220506 0.0367964 0.501
-0.0207703 0.0367964 0.501
-0.0194899 0.0367964 0.501
-0.0182096 0.0367964 0.501
-0.0169293 0.0367964 0.501
-0.0156801 0.0368699 0.502
-0.0143972 0.0368699 0.502
-0.0131405 0.0369433 0.503
-0.011855 0.0369433 0.503
-0.0105696 0.0369433 0.503
-0.00928411 0.0369433 0.503
-0.00799866 0.0369433 0.503
-0.00671321 0.0369433 0.503
-0.00542775 0.0369433 0.503
-0.0041423 0.0369433 0.503
-0.00286253 0.0370167 0.504
-0.00157452 0.0370167 0.504
-0.000286508 0.0370167 0.504
0.00100349 0.0370902 0.505
0.00229405 0.0370902 0.505
0.00359172 0.0371636 0.506
0.00489449 0.0372371 0.507
0.00619017 0.0372371 0.507
0.00750061 0.0373105 0.508
0.00879884 0.0373105 0.508
0.0101169 0.037384 0.509
0.0114177 0.037384 0.509
0.0127435 0.0374574 0.51
0.0140744 0.0375309 0.511
0.0153803 0.0375309 0.511
0.0167188 0.0376043 0.512
0.0180625 0.0376778 0.513
0.0194113 0.0377512 0.514
0.0207652 0.0378246 0.515
0.0220813 0.0378246 0.515
0.0234428 0.0378981 0.516
0.0247615 0.0378981 0.516
0.0391323 0.0453896 0.618
0.0433734 0.0448755 0.611
0.0451555 0.0450958 0.614
0.0468007 0.0451692 0.615
0.0501065 0.0453161 0.617
0.0518508 0.045463 0.619
0.053519 0.0455365 0.62
0.0553701 0.0457568 0.623
0.0569623 0.0457568 0.623
0.0587423 0.0459037 0.625
0.0603396 0.0459037 0.625
0.0618377 0.0458303 0.624
0.0633307 0.0457568 0.623
0.0648187 0.0456834 0.622
0.0665766 0.0447286 0.609
0.0676854 0.0444348 0.605
0.0692316 0.0444348 0.605
0.0703097 0.044141 0.601
0.0712479 0.0437738 0.596
0.0725268 0.0436269 0.594
0.0747996 0.0431862 0.588
0.0757832 0.0428924 0.584
0.0795859 0.0395874 0.539
0.0802123 0.0392201 0.534
0.0808132 0.0388529 0.529
0.0813885 0.0384857 0.524
0.0824118 0.0383388 0.522
0.0835854 0.0382653 0.521
0.0847539 0.0381919 0.52
0.0860828 0.0381919 0.52
0.0872436 0.0381184 0.519
0.0885699 0.0381184 0.519
0.0898963 0.0381184 0.519
0.181927 0.0699205 0.952
0.183004 0.0694064 0.945
0.183653 0.0687454 0.936
0.183859 0.0679375 0.925
0.184209 0.067203 0.915
0.186409 0.0663217 0.903
0.187254 0.0658075 0.896
0.188486 0.0654403 0.891
0.189692 0.0650731 0.886
0.190873 0.0647059 0.881
0.192248 0.0644121 0.877
0.193824 0.0641917 0.874
0.19516 0.063898 0.87
0.19693 0.0637511 0.868
0.19846 0.0635307 0.865
0.199974 0.0633104 0.862
0.201708 0.0631635 0.86
0.203432 0.0630166 0.858
0.205145 0.0628697 0.856
0.206606 0.0626494 0.853
0.208541 0.0625759 0.852
0.210224 0.062429 0.85
0.212146 0.0623556 0.849
0.213559 0.0621352 0.846
0.215466 0.0620618 0.845
0.21711 0.0619149 0.843
0.218744 0.061768 0.841
0.219843 0.0614742 0.837
0.221186 0.0612539 0.834
0.222514 0.0610336 0.831
0.223016 0.0605929 0.825
0.223487 0.0601522 0.819
0.222826 0.0594177 0.809
0.222391 0.0587567 0.8
0.221911 0.0580957 0.791
0.221667 0.0575082 0.783
0.221669 0.056994 0.776
0.221635 0.0564799 0.769
0.222146 0.0561127 0.764
0.222338 0.055672 0.758
0.2225 0.0552313 0.752
0.222632 0.0547907 0.746
0.223033 0.0544234 0.741
0.223105 0.0539827 0.735
0.223453 0.0536155 0.73
0.223776 0.0532483 0.725
0.224072 0.0528811 0.72
0.224343 0.0525138 0.715
0.224589 0.0521466 0.71
0.225128 0.0518528 0.706
0.225325 0.0514856 0.701
0.225497 0.0511184 0.696
0.226296 0.050898 0.693
0.22675 0.0506042 0.689
0.226853 0.050237 0.684
0.227264 0.0499432 0.68
0.227991 0.0497229 0.677
0.228704 0.0495025 0.674
0.2294 0.0492822 0.671
0.229737 0.0489884 0.667
0.229707 0.0486212 0.662
0.229651 0.048254 0.657
0.229922 0.0479602 0.653
0.230172 0.0476664 0.649
0.230402 0.0473726 0.645
0.23133 0.0472257 0.643
0.231524 0.0469319 0.639
0.232428 0.046785 0.637
0.232953 0.0465647 0.634
0.233834 0.0464178 0.632
0.234704 0.0462709 0.63
0.236314 0.0462709 0.63
0.237546 0.0461975 0.629
0.238773 0.046124 0.628
0.240378 0.046124 0.628
0.241983 0.046124 0.628
0.243588 0.046124 0.628
0.244802 0.0460506 0.627
0.246798 0.046124 0.628
0.248007 0.0460506 0.627
0.249609 0.0460506 0.627
0.251212 0.0460506 0.627
0.252814 0.0460506 0.627
0.254416 0.0460506 0.627
0.25561 0.0459771 0.626
0.256799 0.0459037 0.625
0.258397 0.0459037 0.625
0.26041 0.0459771 0.626
0.262428 0.0460506 0.627
0.26403 0.0460506 0.627
0.265633 0.0460506 0.627
0.267661 0.046124 0.628
0.269266 0.046124 0.628
0.270871 0.046124 0.628
0.27291 0.0461975 0.629
0.274517 0.0461975 0.629
0.276125 0.0461975 0.629
0.278174 0.0462709 0.63
0.279784 0.0462709 0.63
0.281394 0.0462709 0.63
0.283004 0.0462709 0.63
0.285066 0.0463444 0.631
0.286678 0.0463444 0.631
0.288748 0.0464178 0.632
0.290363 0.0464178 0.632
0.291978 0.0464178 0.632
0.294058 0.0464913 0.633
0.295675 0.0464913 0.633
0.296823 0.0464178 0.632
0.298438 0.0464178 0.632
0.300528 0.0464913 0.633
0.302146 0.0464913 0.633
0.304244 0.0465647 0.634
0.305864 0.0465647 0.634
0.307484 0.0465647 0.634
0.309104 0.0465647 0.634
0.311215 0.0466382 0.635
0.312837 0.0466382 0.635
0.31446 0.0466382 0.635
-0.230933 0.0316166 0.416
-0.22987 0.0316166 0.416
-0.229357 0.0316926 0.417
-0.228291 0.0316926 0.417
-0.227226 0.0316926 0.417
